x y z
0.017669640075252686 0.0436502347012799 0.2128448084208034
0.016094297927317154 0.04259823584649961 0.20479613927186757
0.013226393228458654 0.04250245085390076 0.19252174068618855
0.010199644715104976 0.042401360645406276 0.1795675035086765
0.00836527005300993 0.04124672078683816 0.17028733891482772
0.0057591392944362635 0.04057350255431815 0.15836709820842354
0.003024411350931745 0.039867064971901234 0.14585866391522462
0.0016735892788695913 0.03804062349243049 0.13774881705713432
0.0010497276464956212 0.03562584826696143 0.13194953128691678
0.000413111919476956 0.03316170588991098 0.12603168615073324
0.0005460215523434312 0.030134164191012336 0.12263731097286712
-0.00010573630419477207 0.027574641651634067 0.11653064477037967
2.6546592317596026e-05 0.024470559166280263 0.11303356519421937
0.0001602171313801942 0.021333914973785412 0.1094998013863917
0.0002952972625945234 0.01816419401607675 0.10592877307911197
0.028218262411254504 0.05799781912706177 0.28274825374861356
0.028023983401837392 0.056374119473469535 0.27959621120343003
0.027356386234105953 0.055169389314664544 0.2750626227350147
0.02619180775025073 0.05438422011096162 0.26904911748978944
0.024991486602085108 0.05357495288409929 0.2628510487288469
0.023753751650578338 0.052740460937233835 0.25645978723271734
0.022996172651842076 0.05142151448981108 0.2513844738858887
0.021691765013194985 0.050529122653841615 0.24463029607005804
0.020887607385624413 0.04914584985037793 0.23926707179314932
0.020063647672192236 0.047728514462807604 0.23377178009066985
0.01921914532643273 0.046275842639150855 0.22813948198467898
0.017779245348023495 0.04524745827988175 0.22062140044677425
0.016289834168610642 0.04418371275283418 0.2128448084208034
0.014135706281045934 0.04355445176479753 0.20290644951969578
0.011884832557819448 0.042896929511267605 0.19252174068618855
0.008188766975277532 0.04319699430516314 0.1774556805159661
0.0063703373010078794 0.04198895730106324 0.16809176091189099
0.003757316177122016 0.04124265170768235 0.15606071839939878
0.0017706642135163868 0.03994239203823941 0.14585866391522462
0.0012440343740617239 0.03756420872701469 0.1402269143199631
-6.982526759782663e-05 0.0356412418036238 0.13194953128691678
-0.0006287262806452443 0.03315831874885993 0.12603168615073324
-0.000400784847756309 0.030136445751487065 0.12263731097286712
-0.0001704893588480883 0.02708336448175756 0.11920788052129372
-0.0007421053453023215 0.024459318271130546 0.11303356519421937
-0.0005099763895373648 0.021328420516297207 0.1094998013863917
0.025906622301931078 0.05928937499179327 0.281456338049492
0.025759394727664284 0.05765756106941403 0.27828310320933103
0.0256099751126373 0.05600145140862603 0.2750626227350147
0.024470634038656305 0.05518008934434387 0.26904911748978944
0.023296324874411835 0.05433351844360458 0.2628510487288469
0.022085412695882486 0.05346056007377583 0.25645978723271734
0.02136963662574724 0.052118468315393754 0.2513844738858887
0.020093903338491224 0.05118554438684824 0.24463029607005804
0.01933359216293522 0.04977769494351034 0.23926707179314932
0.01855455860427457 0.04833517772534658 0.23377178009066985
0.01775610249411616 0.04685669624781964 0.22813948198467898
0.016349215352774372 0.045783590982834244 0.22062140044677425
0.01489395216233969 0.04467358681426569 0.2128448084208034
0.012760652772144476 0.04397697353644107 0.20290644951969578
0.010531542992318899 0.04324907407821589 0.19252174068618855
0.006827875932077383 0.04343289458269908 0.1774556805159661
0.00504828890237439 0.04216833541553766 0.16809176091189099
0.0032001436440793696 0.040855059363501596 0.15836709820842354
0.0005151696442971692 0.03997830078593929 0.14585866391522462
6.35002079103868e-05 0.03758474912160741 0.1402269143199631
-0.0011893092725822623 0.035621461737645264 0.13194953128691678
-0.0016699440038354914 0.0331222083504561 0.12603168615073324
-0.0021605062069646546 0.03057133308474099 0.11999160839727196
-0.0010211142694028354 0.02706464527611676 0.11920788052129372
-0.00151002491454189 0.0244239389818565 0.11303356519421937
-0.002009246950854099 0.02172753875692794 0.10672903020186131
0.02293798320048516 0.05927894527275389 0.2756275613330311
0.022323842421701066 0.0580348108645348 0.2709979596794104
0.02169567260818187 0.056762256254578404 0.2662626023999592
0.02105298750073864 0.055460296372671414 0.2614178239078563
0.020395278105259988 0.05412790009189664 0.25645978723271734
0.01917492938719878 0.05318850536739134 0.2498661573228459
0.018476211407158723 0.05179145216725071 0.24463029607005804
0.01776049701895408 0.05036041546146744 0.23926707179314932
0.017027158427133492 0.04889414000304737 0.23377178009066985
0.01627553653235813 0.04739130795436933 0.22813948198467898
0.014903050655836749 0.046274540809006615 0.22062140044677425
0.013483371623453146 0.04511937343901902 0.2128448084208034
0.011373006039569188 0.04435609534460849 0.20290644951969578
0.009167860065373524 0.04355853703057297 0.19252174068618855
0.005460246599671725 0.04362593183699881 0.1774556805159661
0.003721258452081563 0.04230609847400178 0.16809176091189099
0.0019152761395804505 0.040935418798970835 0.15836709820842354
-0.0007408333351637848 0.039974755777402185 0.14585866391522462
-0.0019137770840472225 0.03802929652307255 0.13774881705713432
-0.0023076195729017077 0.03556652758956287 0.13194953128691678
-0.002709513693908736 0.03305341033130305 0.12603168615073324
-0.0022922770759126938 0.030051812871002625 0.12263731097286712
-0.0018707314634543015 0.027019216533142657 0.11920788052129372
-0.0022764542714983228 0.024364456213545254 0.11303356519421937
0.01996436139526061 0.059116262088664516 0.2696225944673597
0.018830284704043538 0.058236121562798726 0.2634333261416747
0.018211664938219106 0.05691391123032459 0.2585179992744509
0.01757846989152429 0.05556054834174057 0.25348686254530967
0.016930178311753565 0.05417491879580055 0.24833577427447945
0.01684028568582739 0.0523462480372219 0.24463029607005804
0.016169874408666025 0.05089343632945071 0.23926707179314932
0.015482954500338583 0.04940484966762621 0.23377178009066985
0.014778908581012001 0.04787915016159 0.22813948198467898
0.013442178447168926 0.046719823250193505 0.22062140044677425
0.012059484624641438 0.04552063268951601 0.2128448084208034
0.009974135523112505 0.044691443041847086 0.20290644951969578
0.004087228663095751 0.043775915563598 0.1774556805159661
0.003129722509918465 0.04196992441901798 0.17028733891482772
0.0006285184887658561 0.040975379918278494 0.15836709820842354
-0.001996105201564825 0.039931760511123536 0.14585866391522462
-0.0031073618215797325 0.03795041816998847 0.13774881705713432
-0.003423652531304987 0.03547649357274849 0.13194953128691678
-0.003746409421089645 0.032951992586739594 0.12603168615073324
-0.003235096229502772 0.029964981952478643 0.12263731097286712
-0.002718502471407485 0.026947123085519886 0.11920788052129372
-0.0030406370429284417 0.024280928668507683 0.11303356519421937
0.013413596822978687 0.0540330251349473 0.23988239848288767
0.012759618069020262 0.05255630760791698 0.23439468287713688
0.01331713104378527 0.05025556206064793 0.23211831118514614
0.01326769563117567 0.04831974142812103 0.22813948198467898
0.011335392260196612 0.04750764581511557 0.21886301418806603
0.009974321261259897 0.04626696473690517 0.21102249124846695
0.008565421739086485 0.04498268568046668 0.20290644951969578
0.0027101771252863987 0.043882697746666255 0.1774556805159661
0.0010574934961261528 0.042456276804081344 0.16809176091189099
-0.0014413862824807382 0.04138835766638649 0.15606071839939878
-0.0024426331986893484 0.039435339262803695 0.14826043663660765
-0.0034738189545940167 0.03742392257208318 0.1402269143199631
-0.003702749301115072 0.034949651450157715 0.1344817691095902
-0.00477960789448143 0.0328180552038353 0.12603168615073324
-0.0041747227336922325 0.029848579214483677 0.12263731097286712
-0.00356359064563017 0.026848436080777305 0.11920788052129372
0.01109645084496788 0.05480958950359892 0.23827399631377566
0.011102488451438599 0.05293116353180736 0.23439468287713688
0.011731994491290584 0.05064906516931297 0.23211831118514614
0.01111486597491548 0.04908025644171121 0.22644181391014262
0.010482091404379683 0.0474716737194412 0.22062140044677425
0.009177423810584182 0.0461880294239397 0.2128448084208034
0.007148254917919886 0.04522953583914511 0.20290644951969578
0.001330450969858038 0.04394617300508086 0.1774556805159661
-0.0002766121951251427 0.04246854386781625 0.16809176091189099
-0.002740714776658941 0.041322659973059096 0.15606071839939878
-0.004499502332129965 0.03972762782065645 0.14585866391522462
-0.005484156626082405 0.03768041882553588 0.13774881705713432
-0.004798717299419604 0.03481609974070431 0.1344817691095902
-0.0058080894719304155 0.03265173036261664 0.12603168615073324
-0.005110229290563922 0.02970271953246666 0.12263731097286712
-0.0044051619861231305 0.026723252911073966 0.11920788052129372
0.00751346039308686 0.05434481604033104 0.22940081751946612
0.008860476794928681 0.05170114749898849 0.22877014975207255
0.008922612200718587 0.04975576406048886 0.2247299190776904
0.00832999469054946 0.04812565549727517 0.21886301418806603
0.007049512463793068 0.04680196026462646 0.21102249124846695
0.0057240336321685735 0.04543174990657834 0.20290644951969578
0.002186982104614884 0.04507680979861825 0.18851121457875075
-5.058818005028074e-05 0.043966278696425214 0.1774556805159661
-0.0016104449035356447 0.04243889960604305 0.16809176091189099
-0.004037338516243087 0.04121618180328349 0.15606071839939878
-0.004913978660164389 0.039204148421349685 0.14826043663660765
-0.005816831707531486 0.03713195211265939 0.1402269143199631
-0.006747091212770776 0.03499685347340426 0.13194953128691678
-0.006830839166289746 0.03245318220562126 0.12603168615073324
-0.006040692668091284 0.029527546852323887 0.12263731097286712
-0.00524238596357744 0.02657169711708482 0.11920788052129372
0.005140447222846985 0.0549031204499819 0.22770841249940138
0.0065758028740518035 0.0522922182129936 0.22707511320477197
0.007355343112565336 0.05001147861665244 0.2247299190776904
0.006814220970713988 0.0483635598477746 0.21886301418806603
0.005575948856684849 0.04700029686008891 0.21102249124846695
0.0042941634162932665 0.04558912832189542 0.20290644951969578
0.0007700061483700209 0.04512326188207347 0.18851121457875075
-0.0014315774055324753 0.043942994978809345 0.1774556805159661
-0.002942688297257727 0.042367373274069135 0.16809176091189099
-0.005329977890145487 0.04106902823815798 0.15606071839939878
-0.006985141982617269 0.03936670833300794 0.14585866391522462
-0.006980304254132462 0.03693091863642596 0.1402269143199631
-0.00784303966349603 0.0347676533822633 0.13194953128691678
-0.006970333601413147 0.03191070858576656 0.12861976861251456
-0.0069651946112569045 0.0293232340483418 0.12263731097286712
-0.006074436339006626 0.026393918266080982 0.11920788052129372
0.0027347897068427354 0.05536838568850657 0.2260018248267457
0.0042578024478120355 0.05279311178494347 0.22536587195221802
0.0051093491980640626 0.05052984168377777 0.22300361790072765
0.005291722437471287 0.04855373520370762 0.21886301418806603
0.004096882461247545 0.04715224983696505 0.21102249124846695
0.0014198227992566759 0.04631867872738394 0.1990768253293636
-0.0006477297109793148 0.04512518275384851 0.18851121457875075
-0.002811153836951844 0.04387634483045147 0.1774556805159661
-0.004272027612905479 0.04225403545974867 0.16809176091189099
-0.007453587080959529 0.041196497350545036 0.15373190936671927
-0.007365930892851064 0.03881823671674834 0.14826043663660765
-0.008136888083176955 0.03669343880222222 0.1402269143199631
-0.008931247980975068 0.03450414181478371 0.13194953128691678
-0.008855112236622284 0.03196023132369027 0.12603168615073324
-0.00788282274825935 0.029089982752590948 0.12263731097286712
-0.0077946176782898455 0.026450254774412835 0.11653064477037967
-0.0004004437028670763 0.056053638147893756 0.22254538237831412
0.0019097492097837686 0.05320219035771921 0.22364224668619015
0.0035196473592793128 0.0506653967938841 0.22300361790072765
0.0037640016130601954 0.04869599388495807 0.21886301418806603
0.002613772937443603 0.047257669236012226 0.21102249124846695
-3.5782655909198094e-05 0.04634042096737399 0.1990768253293636
-0.002830084174262685 0.045373063182471036 0.186478564511875
-0.004187955998928857 0.04376639402700125 0.1774556805159661
-0.006411871055428714 0.04238773836992114 0.16587533800205984
-0.007898206015934904 0.04065331581145513 0.15606071839939878
-0.009443214468907002 0.03885042643250734 0.14585866391522462
-0.009285441786061756 0.03641974697397324 0.1402269143199631
-0.010010642234979519 0.034206578825068445 0.13194953128691678
-0.009854637899468525 0.03166631508176044 0.12603168615073324
-0.008792671490913988 0.02882802315593947 0.12263731097286712
-0.008621594085267602 0.02619236831237176 0.11653064477037967
-0.002876790419416984 0.05630838541843612 0.22079516040075864
0.00023768568007711036 0.053235924960694986 0.22364224668619015
0.001926472053483129 0.05075095127426236 0.22300361790072765
0.0022325661734904348 0.04879019549938266 0.21886301418806603
0.0011280839353150353 0.04731645102101101 0.21102249124846695
-0.0007500251866688407 0.04605251545976562 0.20100008543078013
-0.0034798852333238353 0.044995467228484326 0.18851121457875075
-0.006362351985574223 0.043879327085722536 0.1753241814016347
-0.006916750580990944 0.04190241393952724 0.16809176091189099
-0.009171260236727706 0.04038516720785337 0.15606071839939878
-0.010658876197367183 0.03853463755769138 0.14585866391522462
-0.010424831878948685 0.03611011325247028 0.1402269143199631
-0.01018607506417333 0.033636771005277045 0.1344817691095902
-0.010844438224472841 0.031341148009965465 0.12603168615073324
-0.00969384292835919 0.028537613780882497 0.12263731097286712
-0.008531364905405386 0.025705126164328098 0.11920788052129372
-0.004644060025461449 0.05619023845854643 0.22079516040075864
-0.0014346124166996442 0.05321712213298566 0.22364224668619015
0.0003313955523559472 0.05078642069296952 0.22300361790072765
0.0006989274606484198 0.04883624708136105 0.21886301418806603
-0.0010837621187587796 0.04756955605385319 0.20918437307611937
-0.002945451154760031 0.046246731920502465 0.1990768253293636
-0.0064626384155095995 0.045349908152372366 0.18442732243572896
-0.0069278066432925675 0.043417067112932056 0.1774556805159661
-0.009060766806473408 0.041901491136080576 0.16587533800205984
-0.011297440677950644 0.04031222132871243 0.15373190936671927
-0.010986359414229336 0.03795276467580645 0.14826043663660765
-0.012447623548469606 0.03598536653645183 0.13774881705713432
-0.012138737374988948 0.0335105065287504 0.13194953128691678
-0.011823536398214497 0.03098505100894731 0.12603168615073324
-0.011501824970511916 0.028407432407667917 0.11999160839727196
-0.010249213752793111 0.02559932928479991 0.11653064477037967
-0.00898353124971351 0.022761922961766833 0.11303356519421937
-0.007145960242136763 0.056268218096574264 0.21903002123700693
-0.0038245119333258472 0.05338312318935963 0.2219040550678008
-0.0019752440056478213 0.05099906134250785 0.22126272775728756
-0.0015508723870975014 0.04905507429770269 0.21708964115878676
-0.002577423212236367 0.04751204155870133 0.20918437307611937
-0.0051598129581524365 0.04635016977009314 0.1971364435927953
-0.007087506606717775 0.044905361473811266 0.186478564511875
-0.008288151223879454 0.04317803574580253 0.1774556805159661
-0.010372453508103986 0.041596209716397846 0.16587533800205984
-0.01168896847988495 0.03972960811047995 0.15606071839939878
-0.012173063456638692 0.03758894738877926 0.14826043663660765
-0.012671633625946862 0.035384277582852355 0.1402269143199631
-0.013185338088018778 0.03311268416146625 0.13194953128691678
-0.012790966169003963 0.030598375503453873 0.12603168615073324
-0.012388448529590519 0.02803213400150262 0.11999160839727196
-0.011048250749233919 0.025264761977190877 0.11653064477037967
-0.009694067697646186 0.022468511791069748 0.11303356519421937
-0.009663004688822748 0.05624618285540995 0.2172497733615374
-0.005499429188895231 0.053236651017647844 0.2219040550678008
-0.0035761885710082833 0.050911852470749044 0.22126272775728756
-0.0030909642455188378 0.048982154500870186 0.21708964115878676
-0.004068540700179552 0.04740763841472933 0.20918437307611937
-0.006613160917812212 0.046165225117556774 0.1971364435927953
-0.008494520840620032 0.04466057942618069 0.186478564511875
-0.009640316399848997 0.04289639287033931 0.1774556805159661
-0.011673903850403552 0.04124987785969629 0.16587533800205984
-0.013806373080038077 0.03952330219885114 0.15373190936671927
-0.01423800147240649 0.03736053061139778 0.14585866391522462
-0.014682600867062415 0.035132764886153516 0.13774881705713432
-0.014218926464240892 0.03268218357265755 0.13194953128691678
-0.013745772800456682 0.03018150309552517 0.12603168615073324
-0.012336448009364991 0.027498691633216825 0.12263731097286712
-0.01183638445605671 0.024905261399762037 0.11653064477037967
-0.010395037271140262 0.022152926911891177 0.11303356519421937
-0.012191506985016977 0.056123100270472376 0.21545422195601038
-0.007168919171809307 0.053037640698720405 0.2219040550678008
-0.005173603870007639 0.050774399747264054 0.22126272775728756
-0.0046280056954064825 0.04886089523123249 0.21708964115878676
-0.006306634518003649 0.047429661639381046 0.2073302474972567
-0.010701760362833377 0.044540455653874024 0.18442732243572896
-0.011811720890104913 0.04273591133810561 0.1753241814016347
-0.012963833459010265 0.04086283735370532 0.16587533800205984
-0.015041017391695062 0.03907013117650923 0.15373190936671927
-0.015404498504232885 0.036894869010833026 0.14585866391522462
-0.015778902703447957 0.03465423734902164 0.13774881705713432
-0.015238482476714598 0.03221942961443047 0.13194953128691678
-0.014687014013702612 0.02973484518789821 0.12603168615073324
-0.013194115494825794 0.027097625492572452 0.12263731097286712
-0.012612837080445386 0.02452118233618028 0.11653064477037967
-0.011085748197855782 0.021815479768405848 0.11303356519421937
-0.013948360393582555 0.05571246241969522 0.21545422195601038
-0.008831334297014909 0.0527862886317353 0.2219040550678008
-0.006765913446604062 0.05058683882129608 0.22126272775728756
-0.006160479862418661 0.04869141615704895 0.21708964115878676
-0.007793324249485362 0.04720816178704941 0.2073302474972567
-0.012095529211887807 0.04418232721125721 0.18442732243572896
-0.013148259933894306 0.04234380862646763 0.1753241814016347
-0.015103513384632969 0.04056768210257102 0.16363777191585155
-0.01626081803511048 0.038578402651690206 0.15373190936671927
-0.016555793155843247 0.03639279662892609 0.14585866391522462
-0.016859632667875206 0.034141510263483055 0.13774881705713432
-0.017172742246717426 0.03182153771934897 0.12939154081866766
-0.01561376091730171 0.029258842578002157 0.12603168615073324
-0.014038761981238074 0.026669817267102883 0.12263731097286712
-0.013376842357401938 0.024112903826110935 0.11653064477037967
-0.011765518829498618 0.021456503380203894 0.11303356519421937
-0.015691448454445624 0.05524684309475692 0.21545422195601038
-0.010485033961489268 0.052482842870836516 0.2219040550678008
-0.008351545883487316 0.05034935479283456 0.22126272775728756
-0.007686874379570378 0.04847388453370432 0.21708964115878676
-0.009272322910832272 0.0469400731785444 0.2073302474972567
-0.013477361233921042 0.04378059614587988 0.18442732243572896
-0.014471823232537605 0.041909917687945296 0.1753241814016347
-0.016370322401394244 0.040073251580193224 0.16363777191585155
-0.017464571214317597 0.03804860190108096 0.15373190936671927
-0.01769074923841392 0.035854808950501985 0.14585866391522462
-0.01792372421034738 0.0335950896292689 0.13774881705713432
-0.018163807189861863 0.03126642684199245 0.12939154081866766
-0.01652509892394763 0.02875396502294449 0.12603168615073324
-0.015804119910800683 0.026258407939049665 0.11999160839727196
-0.014127646305957484 0.023680828791151378 0.11653064477037967
-0.012433678314525042 0.021076352013640727 0.11303356519421937
-0.017419050950135684 0.054726701805716295 0.21545422195601038
-0.012128386163317127 0.05212760288035464 0.2219040550678008
-0.009928936352877922 0.05006218202994378 0.22126272775728756
-0.009953257677238484 0.04831575134884724 0.21530108894000355
-0.010742170908927302 0.046625660384955886 0.2073302474972567
-0.014845892727557939 0.04333565891780201 0.18442732243572896
-0.01578110458885478 0.04143466672051064 0.1753241814016347
-0.018498450342904753 0.03961781069346788 0.16137875866593293
-0.018651088970259418 0.03748125177405873 0.15373190936671927
-0.018808246687316316 0.03528143690444729 0.14585866391522462
-0.01897012720098139 0.03301551469757499 0.13774881705713432
-0.018202969729186242 0.03064237076191571 0.13194953128691678
-0.017420128653054985 0.028220710775917448 0.12603168615073324
-0.016621118057200665 0.02574903159687974 0.11999160839727196
-0.014864507973260459 0.02322538363719606 0.11653064477037967
-0.013089567260191205 0.02067540083221891 0.11303356519421937
-0.01912946294556547 0.05415255186922822 0.21545422195601038
-0.0137597691122796 0.05172091923927161 0.2219040550678008
-0.011496528160823253 0.04972560393746993 0.22126272775728756
-0.011465980770707842 0.047979271063229995 0.21530108894000355
-0.012201417681253232 0.046265233693751615 0.2073302474972567
-0.016199773117439087 0.042847954626349764 0.18442732243572896
-0.017925409801422654 0.040977406188220086 0.17317272989127402
-0.018854239595528753 0.03896627512361741 0.16363777191585155
-0.019819200353160853 0.03687691217670186 0.15373190936671927
-0.019907182667485472 0.034673246339747395 0.14585866391522462
-0.019997808966359245 0.032403357438885956 0.13774881705713432
-0.01915648778804569 0.0300554815050239 0.13194953128691678
-0.018297966818339395 0.027659606094482276 0.12603168615073324
-0.017421713166770093 0.025214244069241953 0.11999160839727196
-0.015586700165807623 0.022747017833625375 0.11653064477037967
-0.013732538383294166 0.020254045526347082 0.11303356519421937
-0.020031329993437888 0.05343924179958413 0.2172497733615374
-0.016137438736964597 0.051338586273704016 0.22015111166319445
-0.013052774283466516 0.04933995267735471 0.22126272775728756
-0.012967388325461146 0.047595441029680934 0.21530108894000355
-0.01442418979413258 0.04591321611643899 0.20545990449463608
-0.018370296099582593 0.04235849488520347 0.1823572320955016
-0.019203696127190913 0.0403941355832481 0.17317272989127402
-0.02006889644651834 0.03835482164153515 0.16363777191585155
-0.02187003147224134 0.036249567577972645 0.15138034233008102
-0.02190226726337402 0.03403348866970968 0.14343307099101343
-0.02100575530865204 0.0317592219785095 0.13774881705713432
-0.020091100706249136 0.02943893111652889 0.13194953128691678
-0.01915774709951441 0.02707120472121656 0.12603168615073324
-0.017270676586496184 0.024699994357715294 0.12263731097286712
-0.01629351016709625 0.02224620346973365 0.11653064477037967
-0.014361957148962268 0.019812701922841305 0.11303356519421937
-0.011491312965664038 0.017437898523129606 0.11224165893809623
-0.022491982185859485 0.05284454526141932 0.21545422195601038
-0.016980200740624316 0.050754876768509656 0.2219040550678008
-0.014596138893772533 0.04890560884083162 0.22126272775728756
-0.014455998633508984 0.04716464004210281 0.21530108894000355
-0.016642948544276167 0.04546742619960017 0.20357313036097402
-0.018133114495922448 0.04365561783399041 0.19320339245734558
-0.019691743945145068 0.04176056858000129 0.1823572320955016
-0.020463030723371967 0.039771000843298536 0.17317272989127402
-0.02126374771966244 0.037705516581126426 0.16363777191585155
-0.022997866365788266 0.03554472631499893 0.15138034233008102
-0.02296047752981839 0.033328728357233 0.14343307099101343
-0.021992971506510764 0.03108374400037759 0.13774881705713432
-0.021939302523012242 0.028743353038570372 0.12939154081866766
-0.01999862099724504 0.02645608733723716 0.12603168615073324
-0.01897055088009391 0.024070571097385324 0.11999160839727196
-0.016984240440989274 0.02172343478883399 0.11653064477037967
-0.014977202396864444 0.01935180557455417 0.11303356519421937
-0.01294911060003743 0.016955298060072316 0.1094998013863917
-0.02414077103019541 0.05211197943470287 0.21545422195601038
-0.019329171691890787 0.050224003138710914 0.22015111166319445
-0.016877841232828976 0.0484430073100076 0.21950706292563027
-0.016691954070318264 0.04670009713002451 0.21349716180460515
-0.018854083804852637 0.044927578585865074 0.2016697076175452
-0.019495422992727746 0.043064501531125114 0.19320339245734558
-0.020993758416846746 0.041121429635425186 0.1823572320955016
-0.02170217077876069 0.039108616927127755 0.17317272989127402
-0.023318012857682452 0.03698694182547844 0.16137875866593293
-0.024103005141798216 0.03480480669851912 0.15138034233008102
-0.02399602857699288 0.03259107661369388 0.14343307099101343
-0.023885821042886668 0.03031048614727324 0.13524577147596595
-0.022831327338991302 0.028040039783066864 0.12939154081866766
-0.021755165042864618 0.025722938444755414 0.12341701267976968
-0.019717264968018695 0.023462814320312393 0.11999160839727196
-0.01765820932009924 0.02117922770049982 0.11653064477037967
-0.015577666954220474 0.018871811330536753 0.11303356519421937
-0.013475299778101633 0.01654019025066483 0.1094998013863917
-0.02576573584807514 0.05132798537583987 0.21545422195601038
-0.02089720797500964 0.04959207666977689 0.22015111166319445
-0.018391144668658467 0.0478889578054744 0.21950706292563027
-0.018150603098482973 0.04615274650333042 0.21349716180460515
-0.019465030799777617 0.04433268723444611 0.20357313036097402
-0.021653488995761104 0.04240236727241482 0.1912102512726177
-0.022275054583598165 0.040441708804449285 0.1823572320955016
-0.023779169884234893 0.038358993268480045 0.17100104451389186
-0.02446829474466294 0.036236254518378 0.16137875866593293
-0.025184357161724288 0.0340305389398631 0.15138034233008102
-0.025007898441037516 0.0318212614123054 0.14343307099101343
-0.02482611021000001 0.02954525798191283 0.13524577147596595
-0.02370082039134633 0.027309054393612496 0.12939154081866766
-0.022552407204452153 0.025026899479550585 0.12341701267976968
-0.020444520495914293 0.022831902578205217 0.11999160839727196
-0.01924415114021792 0.020467305343092723 0.11382547145034261
-0.01616275823500721 0.018373192887157493 0.11303356519421937
-0.013988190462177509 0.016108759270401306 0.1094998013863917
-0.011790691281368714 0.013820446585925893 0.10592877307911197
-0.027365272995407804 0.05049333679231371 0.21545422195601038
-0.022444621236807648 0.04891120880849378 0.22015111166319445
-0.019886298265089798 0.04728764768129114 0.21950706292563027
-0.019591339672738343 0.04555984868792616 0.21349716180460515
-0.02163790557787006 0.04365506655489908 0.2016697076175452
-0.022974694848806532 0.041701291737769056 0.1912102512726177
-0.023534367960775505 0.03972207688947007 0.1823572320955016
-0.024972321395379783 0.03759314364455915 0.17100104451389186
-0.026479520909712752 0.035361689498994306 0.15909798840944567
-0.027146504701066013 0.03312190400426445 0.14900568205169684
-0.025995088528561014 0.03102004246773042 0.14343307099101343
-0.02574189900362869 0.028750872213966498 0.13524577147596595
-0.024546923595409827 0.026551118264533727 0.12939154081866766
-0.023327392862914017 0.02430616198609363 0.12341701267976968
-0.0211515997503773 0.022178458504782356 0.11999160839727196
-0.01895321958818427 0.020028667195400866 0.11653064477037967
-0.016731898824769446 0.017856442320621068 0.11303356519421937
-0.014487276491081917 0.015661430889571972 0.1094998013863917
-0.012218984005037722 0.013443272466613447 0.10592877307911197
-0.028937803922143453 0.049608857381507956 0.21545422195601038
-0.02396988436721689 0.04818207148923848 0.22015111166319445
-0.02136182648603537 0.04663967035795333 0.21950706292563027
-0.021778734824440867 0.044862553150345263 0.21167766064589932
-0.022998467355750972 0.0429538623757625 0.2016697076175452
-0.024273227451804713 0.040959062062836074 0.1912102512726177
-0.025606824857522182 0.03887219055620637 0.18026803250534434
-0.02614082824025233 0.036790194126536314 0.17100104451389186
-0.027577192374047953 0.03451249878806156 0.15909798840944567
-0.0281734936866015 0.03225286802508785 0.14900568205169684
-0.026956624602131895 0.03018821048633491 0.14343307099101343
-0.02663228365079792 0.02792811280627985 0.13524577147596595
-0.025368801949470655 0.02576697938728322 0.12939154081866766
-0.02407935720097045 0.023561437245274902 0.12341701267976968
-0.021837804929550265 0.02150312697045302 0.11999160839727196
-0.020491329939708768 0.019218567543314403 0.11382547145034261
-0.017284527050458257 0.0173220696013486 0.11303356519421937
-0.014972065327159714 0.015198646567282096 0.1094998013863917
-0.012635218066709576 0.013052831460402408 0.10592877307911197
-0.030481776730111355 0.04867542001781659 0.21545422195601038
-0.0254714921156749 0.0474053842825153 0.22015111166319445
-0.022816273163283787 0.04594566531084786 0.21950706292563027
-0.023177155182129486 0.04415632959592945 0.21167766064589932
-0.02433633242299037 0.0422102679203437 0.2016697076175452
-0.025547805309850232 0.040176410738694567 0.1912102512726177
-0.026815194447629802 0.038048679670359645 0.18026803250534434
-0.028142462558914654 0.035820421977273594 0.168808838479152
-0.02864764847894475 0.03362924840756948 0.15909798840944567
-0.02917267883529542 0.031352002359106436 0.14900568205169684
-0.0278915577417332 0.029326586385856206 0.14343307099101343
-0.027496385449358382 0.02707779172305532 0.13524577147596595
-0.02616564435881993 0.024957411612262583 0.12939154081866766
-0.024807558120605557 0.022793460210501878 0.12341701267976968
-0.02342127511945137 0.020584580568566505 0.11731844061135643
-0.021084888500287433 0.018565436112448038 0.11382547145034261
-0.017820097534734507 0.016770602090698403 0.11303356519421937
-0.015442078542358958 0.01472086301578515 0.1094998013863917
-0.01303898269361795 0.012649508885427391 0.10592877307911197
-0.03199566770455614 0.04769394589122231 0.21545422195601038
-0.026947962576625246 0.04658191368482667 0.22015111166319445
-0.02424820293356209 0.04520631743916798 0.21950706292563027
-0.0245527024858652 0.04340652907526074 0.21167766064589932
-0.025650180468289298 0.04142501702659492 0.2016697076175452
-0.027609463203337313 0.039222488028011086 0.1891990446923842
-0.027997100678255272 0.03718761933135104 0.18026803250534434
-0.029253722597287205 0.034918770650050474 0.168808838479152
-0.029689832813465343 0.032712810019007485 0.15909798840944567
-0.030143074072039106 0.0304201960519697 0.14900568205169684
-0.029702196754751355 0.028236868035713552 0.14098330173342227
-0.028333351635159175 0.026200748128541552 0.13524577147596595
-0.02693666443620358 0.024123213885125463 0.12939154081866766
-0.02551127697542841 0.02200298878238889 0.12341701267976968
-0.023144905523873372 0.020089488344392697 0.11999160839727196
-0.020753968616543345 0.018156123734035103 0.11653064477037967
-0.018338081734190423 0.016202584020524016 0.11303356519421937
-0.015896852290381628 0.014228551749762954 0.1094998013863917
-0.013429879418823181 0.012233702772376174 0.10592877307911197
-0.010075316700101747 0.010524467695262375 0.10512851595636263
-0.03269180793996881 0.04677876055472846 0.2172497733615374
-0.028397838651979417 0.04571247236223371 0.22015111166319445
-0.02565620265506598 0.04442235639000049 0.21950706292563027
-0.02590401923653106 0.04261389155092851 0.21167766064589932
-0.028515839049493386 0.04030908179388739 0.19781202702565648
-0.02882784772180454 0.038335899900906974 0.1891990446923842
-0.02915137715064223 0.03628985930177809 0.18026803250534434
-0.03033611274330096 0.03398265871199003 0.168808838479152
-0.03157817652794288 0.03156381495120694 0.15679514530633426
-0.031083721733891123 0.029458368684004445 0.14900568205169684
-0.030574481972638422 0.027289966299522465 0.14098330173342227
-0.029142356223623062 0.02529784755887957 0.13524577147596595
-0.027681101277891605 0.02326520945831463 0.12939154081866766
-0.026189819279890312 0.021190803060800713 0.12341701267976968
-0.02376451098854508 0.019352576343314973 0.11999160839727196
-0.02131402541426204 0.01749526687485077 0.11653064477037967
-0.019724666049947364 0.015316813110889161 0.11029586117575974
-0.01633593776444393 0.013722198620997612 0.1094998013863917
-0.013807522474451028 0.011805823471681456 0.10592877307911197
-0.01040092665871554 0.010202801160269215 0.10512851595636263
-0.03492725920396909 0.04559080818579526 0.21545422195601038
-0.029819689489096694 0.0447979183483529 0.22015111166319445
-0.027784159238871224 0.04344864148123819 0.21773643451819347
-0.027988800196170848 0.041622884183730176 0.20984238290435414
-0.028980812949344976 0.0395638383777639 0.19974941493061793
-0.030827513890992454 0.037227451742289926 0.18716952598730774
-0.031102836206667706 0.03515931527645043 0.17815945783868364
-0.03223939749212955 0.032800241020030034 0.16659581955112107
-0.03255403799108506 0.030556345618855483 0.15679514530633426
-0.03199369351517499 0.028467469462700033 0.14900568205169684
-0.031416593868120436 0.02631613266135131 0.14098330173342227
-0.02992260082489354 0.024369981067923124 0.13524577147596595
-0.028398220214598206 0.02238424507861122 0.12939154081866766
-0.02684251539465816 0.020357704574988186 0.12341701267976968
-0.025254510829107103 0.018289088774112002 0.11731844061135643
-0.021853047842170337 0.016817144299490126 0.11653064477037967
-0.020196045844416467 0.014689688455038133 0.11029586117575974
-0.01675890164019439 0.013202303338894463 0.1094998013863917
-0.01417153917239898 0.011366293248554529 0.10592877307911197
-0.010716272158436275 0.009871065692329983 0.10512851595636263
-0.035564560802901206 0.04463371775146195 0.2172497733615374
-0.031212111892862972 0.04383915419758049 0.22015111166319445
-0.02839487883617268 0.04272373272312598 0.21950706292563027
-0.030042703680251193 0.04054154850352058 0.20799112249242419
-0.031981644891582395 0.03624076663030985 0.18716952598730774
-0.033018860598083566 0.03394010971350356 0.1760312373154661
-0.03325376976400671 0.0317713921336479 0.16659581955112107
-0.03349777254902667 0.02951872086249053 0.15679514530633426
-0.03287209138360481 0.027448476285955176 0.14900568205169684
-0.03222770137842596 0.0253163281774286 0.14098330173342227
-0.03156375066225251 0.02311945787797189 0.13271739891847045
-0.029978744729902498 0.02116963209686094 0.12680740284363257
-0.02746872118746764 0.019504515492575602 0.12341701267976968
-0.025816523413762095 0.017486800857547138 0.11731844061135643
-0.02324549399721636 0.015776404848390574 0.11382547145034261
-0.020647494579935293 0.014048066850189563 0.11029586117575974
-0.017165326503352698 0.012669378977329225 0.1094998013863917
-0.014521570272134434 0.010915545866260493 0.10592877307911197
-0.01102104199132785 0.009529588674300624 0.10512851595636263
-0.00833070401287634 0.007749816501774381 0.10151538874879706
-0.036948990794078054 0.043494583854999255 0.2172497733615374
-0.03257373171047493 0.0428371260943803 0.22015111166319445
-0.030457496318750606 0.04161832371887915 0.21773643451819347
-0.031301320232233115 0.03957787956929836 0.20799112249242419
-0.033908078197634126 0.03498166385407076 0.18512144391454
-0.03406865239288219 0.03288621484289879 0.1760312373154661
-0.035079091373914816 0.030442880073151116 0.1643616899183984
-0.03440844884969749 0.028451964692472652 0.15679514530633426
-0.0337180484665347 0.02640239477701078 0.14900568205169684
-0.03300700403836852 0.02429153953407211 0.14098330173342227
-0.03139375917950803 0.022443036825614906 0.13524577147596595
-0.03062890624263426 0.020217531033165793 0.12680740284363257
-0.02806781866880399 0.01863207780818054 0.12341701267976968
-0.026353058206674346 0.016667255579742926 0.11731844061135643
-0.023729572600971797 0.015038461533353472 0.11382547145034261
-0.021078566731105957 0.01339258149940352 0.11029586117575974
-0.017554811261647176 0.012123951468306022 0.1094998013863917
-0.014857270335221717 0.01045402615804628 0.10592877307911197
-0.01131493538636051 0.009178707102770915 0.10512851595636263
-0.008570020932371965 0.007484318698454444 0.10151538874879706
-0.03829695659224687 0.04231252605543642 0.2172497733615374
-0.033903205187562936 0.04179282291951386 0.22015111166319445
-0.031749730522475615 0.04064109450945319 0.21773643451819347
-0.03252904616020001 0.03857515204623655 0.20799112249242419
-0.03419411298575848 0.03416110965763614 0.18716952598730774
-0.035903654287832945 0.031520901876516585 0.17388309508623828
-0.03518309326371988 0.02962067706896619 0.16659581955112107
-0.03528516816553602 0.027357129868350635 0.15679514530633426
-0.03539127250293818 0.02500422850252304 0.1466075866769761
-0.0337537327703091 0.0232427780739486 0.14098330173342227
-0.032953149581767496 0.02109193260661097 0.13271739891847045
-0.031248840722777206 0.019245477707233012 0.12680740284363257
-0.028639216601783042 0.017741252512466818 0.12341701267976968
-0.026863585712779886 0.01583126173294366 0.11731844061135643
-0.024190232981476094 0.014285677072398414 0.11382547145034261
-0.02148883688175922 0.012723879287583523 0.11029586117575974
-0.017926971540644456 0.011566559082926 0.1094998013863917
-0.01517830806622812 0.009982189588143951 0.10592877307911197
-0.011597662306235535 0.008818767255489508 0.10512851595636263
-0.008800880275878508 0.007211434776171878 0.10151538874879706
-0.039607127917906736 0.041088710901110055 0.2172497733615374
-0.03519922029431439 0.04070727527413452 0.22015111166319445
-0.033010631575366364 0.03962375744640521 0.21773643451819347
-0.03372466984688613 0.03753435550533965 0.20799112249242419
-0.0360376851982717 0.032783529684985734 0.18512144391454
-0.03687603345656085 0.0303775871793633 0.17388309508623828
-0.03609614048219174 0.02850093338677647 0.16659581955112107
-0.03612706528042515 0.02623529685991487 0.15679514530633426
-0.035309333684908066 0.024233121901243476 0.14900568205169684
-0.03532557964816015 0.021802550207262652 0.13850899287710383
-0.03359940280528825 0.02004644156872113 0.13271739891847045
-0.031837936369845034 0.018254431418337873 0.12680740284363257
-0.029182351085630658 0.016832918742450662 0.12341701267976968
-0.02734760210306692 0.014979644342145371 0.11731844061135643
-0.024627020522549895 0.013518794372903594 0.11382547145034261
-0.021877900144788905 0.012042620143079247 0.11029586117575974
-0.019099789545727944 0.010550879254935332 0.10672903020186131
-0.015484366639672498 0.009500501802282476 0.10592877307911197
-0.011868943733617045 0.008450124349629606 0.10512851595636263
-0.008253520827561579 0.007399746896976745 0.1043282588336133
-0.04087821179013813 0.039824346149824476 0.2172497733615374
-0.036460498020288716 0.039581554462708515 0.22015111166319445
-0.034958335210082084 0.038304380185303105 0.21595065041384814
-0.03708565441904969 0.033661145466904935 0.1938850442285026
-0.03704965832873334 0.0316353819445916 0.18512144391454
-0.0378120204323646 0.029204293471194527 0.17388309508623828
-0.036973565167947524 0.027353062724293394 0.16659581955112107
-0.036933309343555945 0.025087572780904146 0.15679514530633426
-0.03689146440912393 0.022732651981983022 0.1466075866769761
-0.035992983258907374 0.020682188693238672 0.13850899287710383
-0.03421249747474525 0.018981167113239182 0.13271739891847045
-0.032395611817556465 0.017245370209517052 0.12680740284363257
-0.0296966861121847 0.015907972913898616 0.12341701267976968
-0.027804629711794242 0.014113243850895763 0.11731844061135643
-0.025039504167624158 0.012738570255506542 0.11382547145034261
-0.02143092554343615 0.011812044741859262 0.11303356519421937
-0.01861786701131954 0.010418091264080666 0.1094998013863917
-0.01577514401269376 0.009009438168151631 0.10592877307911197
-0.012128511946488419 0.008073142191232497 0.10512851595636263
-0.009236323485171522 0.006644592812098986 0.10151538874879706
-0.005570362139764673 0.00570333391980355 0.10071088979603104
-0.04137276907408348 0.03880040070267851 0.21903002123700693
-0.03697452046038904 0.03869456770275091 0.2219040550678008
-0.035433488950277175 0.03747281430566315 0.21773643451819347
-0.038124677017851334 0.032479647167385196 0.1938850442285026
-0.03879998881505662 0.03011739350425247 0.1830545426140387
-0.03871069150910215 0.028002178651246764 0.17388309508623828
-0.03861798685939313 0.025806252918536356 0.1643616899183984
-0.03852167605025786 0.02352490689347761 0.15446990737354233
-0.03758731055303127 0.021562645889908746 0.1466075866769761
-0.036624866140663584 0.019541416355965367 0.13850899287710383
-0.03479182853971955 0.017897160537440542 0.13271739891847045
-0.03292131670757358 0.016219289902358214 0.12680740284363257
-0.03018171409487038 0.014967327836673398 0.12341701267976968
-0.02823421750788965 0.0132329152918779 0.11731844061135643
-0.025427276845140952 0.011945774707213532 0.11382547145034261
-0.0225908914816622 0.010645132066800051 0.11029586117575974
-0.018935920372580607 0.009828149229696354 0.1094998013863917
-0.01605035322313071 0.008509483306271473 0.10592877307911197
-0.0123761107823616 0.007688192816174909 0.10512851595636263
-0.009440477621082119 0.006351194174891541 0.10151538874879706
-0.0057467595500047515 0.005525550365649976 0.10071088979603104
-0.04257110414864956 0.037481704965365244 0.21903002123700693
-0.0388738979245455 0.037214075693531 0.22015111166319445
-0.036593054204583315 0.036341330949162476 0.21773643451819347
-0.039126075163284396 0.03126609537742657 0.1938850442285026
-0.03972685355418936 0.028883795287712795 0.1830545426140387
-0.03957115980691864 0.02677242906171422 0.17388309508623828
-0.03940952520721445 0.024580498809211676 0.1643616899183984
-0.03843569162282089 0.0227190065051132 0.15679514530633426
-0.03824606255939377 0.020371360069630914 0.1466075866769761
-0.03722060470131263 0.018381359000012514 0.13850899287710383
-0.035336824270393516 0.016795491624941827 0.13271739891847045
-0.03341453223263906 0.015177203114244349 0.12680740284363257
-0.03145253540681741 0.013525488983980833 0.12077533627325032
-0.02863594154006316 0.012339527443096177 0.11731844061135643
-0.025789955870283925 0.011141190121515359 0.11382547145034261
-0.022914115919136807 0.009930282287035639 0.11029586117575974
-0.01923528626659531 0.009228507998589167 0.1094998013863917
-0.01630972267271906 0.008001130611730394 0.10592877307911197
-0.012611495891078553 0.007295656123014525 0.10512851595636263
-0.009635315145343383 0.006051527675822442 0.10151538874879706
-0.005917485602383664 0.005342313760393286 0.10071088979603104
-0.043727426683092624 0.036126019310472234 0.21903002123700693
-0.040023638368495755 0.035974654151495505 0.22015111166319445
-0.03840794949295235 0.034844514027139596 0.21595065041384814
-0.04030734450908876 0.03196401006672884 0.20233932980431024
-0.0400888605962796 0.030021687726131865 0.1938850442285026
-0.04061451268514527 0.02762169225240702 0.1830545426140387
-0.04039257614748972 0.025516258316972296 0.17388309508623828
-0.04016217111162588 0.02333048671520189 0.1643616899183984
-0.03992280344773273 0.021059689811141556 0.15446990737354233
-0.03886707031951323 0.019159970176428464 0.1466075866769761
-0.03777961101881954 0.017203161461935013 0.13850899287710383
-0.035846946821779094 0.01567724758995357 0.13271739891847045
-0.03387477164857628 0.01412013825902266 0.12680740284363257
-0.03186186135513916 0.012530866959583435 0.12077533627325032
-0.029009405355195743 0.01143396197049732 0.11731844061135643
-0.026127183322642033 0.010325610526259434 0.11382547145034261
-0.023214726890653965 0.00920563251755143 0.11029586117575974
-0.019515669255369135 0.008619759344258645 0.1094998013863917
-0.016552996395126116 0.007484881767263743 0.10592877307911197
-0.012834434975955364 0.006895919498075964 0.10512851595636263
-0.009820643776841888 0.005745889049547098 0.10151538874879706
-0.0060823718108997185 0.005153804936440445 0.10071088979603104
-0.0023440998449575264 0.004561720823333782 0.09990639084326491
-0.04484059552667567 0.03473468163606696 0.21903002123700693
-0.04113388031348873 0.0346997299690851 0.22015111166319445
-0.039483490123702496 0.03362089751467374 0.21595065041384814
-0.041739657561970483 0.028354054475844537 0.19189497827838614
-0.042208532442166644 0.025918500689485854 0.18096856150201224
-0.04193325824895055 0.023803430055997624 0.171714750112956
-0.04164742999751291 0.021607267263640623 0.1621061460605146
-0.04135042885832626 0.01932525753266277 0.15212194633493253
-0.04024170688080925 0.017443392743700784 0.14418570757046478
-0.039099498628245445 0.015504690764530532 0.1360097738423417
-0.03711790885485277 0.014027671123927946 0.13016331302482076
-0.03430158075464711 0.013049138532084269 0.12680740284363257
-0.03223974349303252 0.01152387848236683 0.12077533627325032
-0.029354240389590704 0.010517112557872542 0.11731844061135643
-0.026438626399433764 0.009499840800040158 0.11382547145034261
-0.02349242772947799 0.008471897900181881 0.11029586117575974
-0.019776792634743214 0.008002504028131498 0.1094998013863917
-0.016779934308558658 0.00696124624815353 0.10592877307911197
-0.013044708023031018 0.006489377433147251 0.10512851595636263
-0.009996280618593341 0.005434579924489443 0.10151538874879706
-0.006241255452772063 0.004960209929241747 0.10071088979603104
-0.0024862302869507603 0.004485839933994043 0.09990639084326491
-0.0459095121161446 0.03330906502445582 0.21903002123700693
-0.042203528084765844 0.03339056134254438 0.22015111166319445
-0.040520065316600073 0.032364101235461046 0.21595065041384814
-0.042609683934637495 0.02702898913389132 0.19189497827838614
-0.043001824860179116 0.024579909430402593 0.18096856150201224
-0.04266025052405852 0.022474529027957737 0.171714750112956
-0.04230558017124166 0.02028842799170942 0.1621061460605146
-0.04193704592631482 0.01801687332600754 0.15212194633493253
-0.0407697602346612 0.016170762922639175 0.14418570757046478
-0.03956721949212779 0.014268895204102811 0.1360097738423417
-0.03754021320558354 0.012854847622495212 0.13016331302482076
-0.034694538341793126 0.011965260880856296 0.12680740284363257
-0.03258580889644966 0.010505517328382839 0.12077533627325032
-0.02967010633270153 0.009589884024899529 0.11731844061135643
-0.026723977743943302 0.00866469587788092 0.11382547145034261
-0.023746944378408196 0.007729802542409483 0.11029586117575974
-0.02073851738719469 0.006785050502711604 0.10672903020186131
-0.016990312452694667 0.0064307408194378335 0.10592877307911197
-0.013242107518194627 0.006076431136164055 0.10512851595636263
-0.010162052338239828 0.005117907525171102 0.10151538874879706
-0.006393979729028425 0.0047617197936962894 0.10071088979603104
-0.0026259071198169942 0.00440553206222147 0.09990639084326491
-0.04625555811710157 0.03223869623331329 0.22079516040075864
-0.04323152606911699 0.0320484402632499 0.22015111166319445
-0.04151665209707694 0.031075365495694247 0.21595065041384814
-0.04414544173639392 0.025234769004409054 0.18988687480601762
-0.04447833223778593 0.022752913705403548 0.17886323516140124
-0.044082583054321056 0.02064063820140788 0.1695259160464131
-0.043671587714004985 0.01844698771297191 0.1598288786104678
-0.042482276193095025 0.01669070864058302 0.15212194633493253
-0.04202504211068289 0.014341792974149425 0.1417396891468815
-0.03923090427676493 0.013571437751617352 0.13850899287710383
-0.03792546989816526 0.011669337938443637 0.13016331302482076
-0.03505325660831817 0.010869574961722372 0.12680740284363257
-0.03289971604061839 0.009476788497142213 0.12077533627325032
-0.029956691462977327 0.00865319143419467 0.11731844061135643
-0.026982955748844503 0.007820999946991626 0.11382547145034261
-0.02397802566024025 0.006980078802758096 0.11029586117575974
-0.020941407767433494 0.0061302899165863066 0.10672903020186131
-0.01718392320970515 0.0058938890259261 0.10592877307911197
-0.013426438651976794 0.005657488135265886 0.10512851595636263
-0.01031779533910792 0.004796184369017881 0.10151538874879706
-0.006540393919246762 0.0045585304156038516 0.10071088979603104
