x y z
-0.10574527694185148 0.05575387398092361 0.5832737115415626
-0.09950289832755582 0.05611232784339982 0.5818148508230753
-0.09182034107423839 0.05658729726252761 0.5808825557832866
-0.08463184900765056 0.05703172140265346 0.5800102166289839
-0.07942564835759287 0.05732913374756364 0.5787541696174012
-0.07299743133440212 0.05772729889172056 0.577993095307223
-0.06694902744303444 0.05810193832885189 0.5772769893010482
-0.06253992715766589 0.05835251320853927 0.5761800217835003
-0.05708260712055026 0.05869117354143603 0.5755500481808745
-0.05308935288800472 0.058917527024043674 0.5745415250922519
-0.0481407666239062 0.059225191666928474 0.5739849382890427
-0.04345025952336135 0.059516810952724715 0.5734573786562115
-0.038998155602943584 0.05979360818119758 0.5729566331591394
-0.03571658447733892 0.05997817418261002 0.5720909308503368
-0.032555513547059226 0.06015596286962958 0.5712570173686877
-0.3072883774806049 0.036612234672692805 0.6808852234362062
-0.2813675817975339 0.038861553334788884 0.6733400222463819
-0.26365817184541757 0.04035529044063135 0.6670897032982999
-0.2473964475326119 0.041726919482857824 0.6613503272335051
-0.24175786720804807 0.04209518938895078 0.6566278965195751
-0.23626885637192646 0.04245369053441727 0.6520307334271794
-0.23551482520706157 0.042358434246030946 0.6477204220981992
-0.23017938036226943 0.04270879708505097 0.6433000271363377
-0.22498180682036853 0.04305010632451059 0.6389938580038896
-0.21991682872332818 0.04338270841435983 0.6347975436733332
-0.21497943600789446 0.04370693235059342 0.6307069333270678
-0.21426339251131535 0.043616475020730155 0.6266137730716813
-0.20945773067313553 0.04393375855747467 0.6226758339640034
-0.20477014773799063 0.04424324618738454 0.6188346531272377
-0.20019634458456342 0.04454522175074256 0.6150867077005318
-0.19950637143400324 0.04445805787148767 0.6111425748501549
-0.19505052845068852 0.044753836756904336 0.607531804136805
-0.1907002773319982 0.045042606453679086 0.604006599277948
-0.18645190865184486 0.045324613193539455 0.6005639543581758
-0.1857861741527507 0.045240511368058796 0.5967583782928257
-0.1749266618159739 0.04621359846787512 0.5943797842082336
-0.16478004750337358 0.04712280499466953 0.5921573384819319
-0.15527836241890927 0.04797422142069971 0.5900761536888519
-0.1437033091800216 0.04905301376334936 0.5885995793735909
-0.13303257934033474 0.05004752336982481 0.5872383652796946
-0.12316417911144555 0.05096725603812571 0.5859795005462055
-0.11610654403532697 0.05159650461997831 0.5843530912321585
-0.1074443695343588 0.052404823392066965 0.5832737115415626
-0.10121633046499841 0.052959178229928475 0.5818148508230753
-0.093552483239916 0.05367522823530768 0.5808825557832866
-0.08638149795981845 0.054345229071386995 0.5800102166289839
-0.07965731185218107 0.05497348448373219 0.5791922298958652
-0.07477466978630089 0.05540590922550101 0.577993095307223
-0.06874101812623815 0.05597034875812446 0.5772769893010482
-0.06434196421287876 0.05635929318104987 0.5761800217835003
-0.05889797461189227 0.0568692049704139 0.5755500481808745
-0.05491380074396346 0.05722087790787808 0.5745415250922519
-0.04997732028843576 0.05768382958775295 0.5739849382890427
-0.04529828765312782 0.058122637365524935 0.5734573786562115
-0.04185520293937216 0.058425532662163736 0.5725599300166998
-0.037582920478153085 0.058826693544165955 0.5720909308503368
-0.03442899382317191 0.059103686140620705 0.5712570173686877
-0.30828676729862176 0.02694200755245394 0.6808852234362062
-0.28840210089996116 0.02925309482031336 0.6739174542429557
-0.26479566275908883 0.03205367422605937 0.6670897032982999
-0.2485850465349706 0.03393541955673738 0.6613503272335051
-0.24296081614671594 0.03448061983198011 0.6566278965195751
-0.23748577459920328 0.03501135807572314 0.6520307334271794
-0.2321540634976897 0.035528202187609145 0.6475539189076017
-0.22696012721675624 0.03603169071750149 0.6431927881348478
-0.22189869359041622 0.03652233473734207 0.6389429142919376
-0.2169647560614572 0.03700061957155433 0.6348000935824544
-0.21624622455572404 0.03693269834668348 0.6307069333270678
-0.21144396289776168 0.03739992999140124 0.6267180826623364
-0.21073436863256298 0.03733285358449469 0.6226758339640034
-0.20605881997800796 0.03778942903917623 0.6188346531272377
-0.20149675900200412 0.038234922224745796 0.6150867077005318
-0.1970441032899928 0.03866973179608269 0.6114286437903146
-0.19269696391258356 0.039094237513902716 0.6078572664600872
-0.19202100071646408 0.03903034017901644 0.604006599277948
-0.18778358639556267 0.0394456522506616 0.6005639543581758
-0.18364426324427033 0.039851350335149666 0.5972010026289097
-0.17629195027555142 0.040696215616106125 0.5943797842082336
-0.16617890157177198 0.041923686361996254 0.5921573384819319
-0.15670864863155384 0.04307313780644092 0.5900761536888519
-0.14517319266907333 0.044514979038794776 0.5885995793735909
-0.13453896649206584 0.04584417363899592 0.5872383652796946
-0.12470432522423668 0.04707342641682154 0.5859795005462055
-0.11766993784059368 0.047924050177521355 0.5843530912321585
-0.10903742750605165 0.04900405556943335 0.5832737115415626
-0.10282987430426771 0.04975376430138326 0.5818148508230753
-0.095192300399364 0.05071018823810834 0.5808825557832866
-0.08804589880246462 0.051605104560206096 0.5800102166289839
-0.08134476465415766 0.052444261756253885 0.5791922298958652
-0.07647811466677586 0.05302984061611238 0.577993095307223
-0.07046516972375497 0.053783523210554865 0.5772769893010482
-0.066080503517513 0.0543104533355307 0.5761800217835003
-0.06065521691313099 0.054991113359988304 0.5755500481808745
-0.05552639918601688 0.055634578204178574 0.5749544999607765
-0.05176455237167564 0.05608554053302746 0.5739849382890427
-0.0471016118419092 0.05667110375247642 0.5734573786562115
-0.04267567337337205 0.05722690470300873 0.5729566331591394
-0.039412166673896284 0.05761715806142658 0.5720909308503368
-0.03626849683904392 0.057993081209065545 0.5712570173686877
-0.3024711914346584 0.018272375809650142 0.680172691947122
-0.2832525042707744 0.02111765229658641 0.6733400222463819
-0.26567183232278474 0.02372042490491326 0.6670897032982999
-0.24952832210843567 0.02611042946858729 0.6613503272335051
-0.23922684748739506 0.027582195946858085 0.6563410447561596
-0.23390407306975006 0.02826563346194427 0.6518078106788658
-0.23315547728089747 0.02821853580698105 0.6475539189076017
-0.22797991885089397 0.028884921376864894 0.6431927881348478
-0.22293639423761175 0.02953430676572668 0.6389429142919376
-0.2180199145986807 0.03016733431827393 0.6348000935824544
-0.21729960418764022 0.030122016228444067 0.6307069333270678
-0.21251438825653993 0.030739860006518325 0.6267180826623364
-0.20784674885640564 0.03134252287548612 0.6228272412056433
-0.20329240515672795 0.031930557555336116 0.6190308405509086
-0.20259832044530837 0.031886889446671306 0.6150867077005318
-0.19816151954879324 0.032461345761560186 0.6114286437903146
-0.19382985926907825 0.03302218895909691 0.6078572664600872
-0.19315222255619918 0.032979555670787176 0.604006599277948
-0.1889299444108952 0.033527763211343646 0.6005639543581758
-0.18480540705049506 0.034063280390569044 0.5972010026289097
-0.17748325986419206 0.035138670512837686 0.5943797842082336
-0.16741375712734097 0.03668319411239168 0.5921573384819319
-0.15517274964169456 0.03860402092525235 0.5905470660460852
-0.14649980774393262 0.03993301340428745 0.5885995793735909
-0.13591257992695552 0.0415955812436195 0.5872383652796946
-0.1261214032237671 0.0431331410068876 0.5859795005462055
-0.11911720562367549 0.044204300483479876 0.5843530912321585
-0.11052287870104419 0.04555492666028404 0.5832737115415626
-0.10434193747239988 0.04649924941431734 0.5818148508230753
-0.09673817425102353 0.04769510340743321 0.5808825557832866
-0.08962340897290295 0.048814052041184046 0.5800102166289839
-0.08295193999429305 0.04986328287409461 0.5791922298958652
-0.0781060848813894 0.050601437956405884 0.577993095307223
-0.07211978070611748 0.0515436198189399 0.5772769893010482
-0.06775382934317134 0.05220801562954985 0.5761800217835003
-0.06235259983826954 0.053058752159833966 0.5755500481808745
-0.05839836955381891 0.05365989949815046 0.5745415250922519
-0.053500699091334813 0.05443190182108524 0.5739849382890427
-0.04885845242644912 0.05516364260200949 0.5734573786562115
-0.04544118080691711 0.05568213328193038 0.5725599300166998
-0.0412025178194209 0.056350761399884375 0.5720909308503368
-0.03807220722728449 0.05682524410794658 0.5712570173686877
5.862923865700863 1.1785063938939002 -0.06765523306583487
5.823013086282193 1.3620837611688525 -0.06765523306583487
7.352765253473836 1.9470670237477916 -0.2627000355652679
7.287978254484391 2.177062201642597 -0.2627000355652679
7.2159989008460474 2.4049088819842863 -0.2627000355652679
7.136898227490674 2.630382207607625 -0.2627000355652679
42.11574799602387 15.204396380731504 -4.192967178215628
7.050754297232932 2.853259663561947 -0.2627000355652679
41.61738478509225 16.519781542640395 -4.192967178215628
6.957652123731703 3.0733212967065477 -0.2627000355652679
41.0779502399055 17.818863674624094 -4.192967178215628
6.857683587591871 3.290349932777876 -0.2627000355652679
-61.18426662956954 -28.67593341403635 7.953854257120234
6.7509473456892595 3.5041313907143135 -0.2627000355652679
39.878036580920565 20.363008054257406 -4.192967178215628
6.637548733808203 3.714454694027026 -0.2627000355652679
-59.262956698537025 -32.46113989852836 7.953854257120234
6.517599662687848 3.9211122790082835 -0.2627000355652679
-58.21408496210395 -34.306616740644195 7.953854257120234
6.391218507579764 4.123900199571783 -0.2627000355652679
-57.10776295208492 -36.11823709392504 7.953854257120234
6.258529991425861 4.322618328522809 -0.2627000355652679
-55.945082474735955 -37.8942131078018 7.953854257120234
6.119665061771903 4.517070555059619 -0.2627000355652679
-54.7271909553161 -39.63279210836494 7.953854257120234
5.974760761538091 4.707064978311122 -0.2627000355652679
-53.45529030571718 -41.33225832804211 7.953854257120234
5.82396009377425 4.892414096719874 -0.2627000355652679
-52.13063573832192 -42.99093459885352 7.953854257120234
5.667411880533077 5.072934993083476 -0.2627000355652679
-50.754534527260866 -44.6071840075743 7.953854257120234
5.505270616000747 5.248449515071767 -0.2627000355652679
-49.328344718290616 -46.179411511170194 7.953854257120234
5.337696314029801 5.418784451041673 -0.2627000355652679
-47.853473788566646 -47.70606551091248 7.953854257120234
5.164854350224792 5.5837717009761745 -0.2627000355652679
-46.331377257633264 -49.185639383618586 7.953854257120234
4.986915298736535 5.74324844237874 -0.2627000355652679
-44.763557251001565 -50.61667296850727 7.953854257120234
4.804054763926004 5.897057290959466 -0.2627000355652679
-43.15156101773289 -51.997754008201014 7.953854257120234
4.61645320706404 6.045046455954369 -0.2627000355652679
27.41257915417087 35.40424272150597 -4.192967178215628
4.424295768237853 6.187069889924548 -0.2627000355652679
26.28697856266988 36.247822784447706 -4.192967178215628
4.227772083640116 6.3229874328873725 -0.2627000355652679
4.027076098420936 6.452664950637461 -0.2627000355652679
2.993210426187106 5.1772043537046555 -0.06765523306583487
-0.20628304864168548 -0.23953142623607412 0.6816205933999024
-0.19318475248685862 -0.21612766312221368 0.6739174542429557
-0.1815749526218443 -0.19538351421701555 0.6670897032982999
-0.1712135608276557 -0.17686999488482985 0.6609961441126753
-0.16402294126883796 -0.16410181576014551 0.6557895785277223
-0.16353331610021 -0.16354644502174553 0.6515906483967642
-0.1609427285679771 -0.15914909780461514 0.6472336555291466
-0.16045934882007515 -0.15860081110548113 0.6430882849105422
-0.15997596907217346 -0.15805252440634737 0.6389429142919376
-0.15949258932427152 -0.15750423770721347 0.6347975436733332
-0.1569855222683718 -0.1532383752194549 0.6307069333270678
-0.15650823062079489 -0.1526969941146197 0.6266137730716813
-0.15603093897321801 -0.1521556130097844 0.6225206128162948
-0.15555364732564084 -0.15161423190494902 0.6184274525609083
-0.1531267570371461 -0.1474746901658575 0.6145913365673374
-0.1526554020398418 -0.146940042868957 0.6105490878690044
-0.15218404704253766 -0.1464053955720568 0.6065068391706715
-0.14982836892743248 -0.14238070234551825 0.6028643008136157
-0.1493628047122199 -0.1418526234015785 0.5988717127352103
-0.14528649108917224 -0.1346208709601527 0.595841285176276
-0.1381271593471466 -0.121642138138231 0.5939150085466809
-0.1315944823197504 -0.10979943091280885 0.5921573384819319
-0.12695793305877534 -0.10146220473587221 0.5900761536888519
-0.12134403622572476 -0.09128233181183677 0.5885995793735909
-0.11616873592973145 -0.08189778112918585 0.5872383652796946
-0.1124551621758114 -0.0752248685396544 0.5855143992434881
-0.1079360251337657 -0.06702792951561257 0.5843530912321585
-0.10373570558493288 -0.059409270709088455 0.5832737115415626
-0.09982161500761143 -0.05230978213452745 0.5822678857163613
-0.0969780343791234 -0.047205487969395325 0.5808825557832866
-0.09350148742662719 -0.040897909012710544 0.5800102166289839
-0.09024155203317354 -0.03498333338095191 0.5791922298958652
-0.0878547501916934 -0.030701936217606373 0.577993095307223
-0.08493017185860768 -0.025394358058538707 0.5772769893010482
-0.08277922515230703 -0.02153736682657804 0.5761800217835003
-0.08014098722396922 -0.016748135840076988 0.5755500481808745
-0.07819241117340835 -0.01325523351679172 0.5745415250922519
-0.07580059590551658 -0.008912148982732331 0.5739849382890427
-0.0735335188256181 -0.004795565425714505 0.5734573786562115
-0.07138166988072847 -0.0008882143866771545 0.5729566331591394
-0.06977915037109085 0.0019814031631908966 0.5720909308503368
-0.06781027514765377 0.005557487958013368 0.571644754379403
-0.06633877208103398 0.008191591611144427 0.5708387635623451
-0.06453059724670052 0.011476695751043936 0.5704400318090341
-0.06280489451916496 0.014611964015383349 0.5700594864872113
-0.06150829682563913 0.016931385127713056 0.5693298515896201
-0.059915102082471944 0.019826706884305198 0.5689882571272934
-0.19865739648846617 -0.2458927390795022 0.6816205933999024
-0.18630069351679457 -0.22208909688509992 0.6739174542429557
-0.17534821185072155 -0.20099051133864554 0.6670897032982999
-0.16557345647334193 -0.18216066812930679 0.6609961441126753
-0.16083085879690276 -0.17319619107940665 0.6560617024501298
-0.1583155042978604 -0.1686024503169992 0.6515906483967642
-0.1578435653461593 -0.16803197412232257 0.647391718265806
-0.15737162639445842 -0.16746149792764609 0.6431927881348478
-0.15689968744275726 -0.16689102173296952 0.6389938580038896
-0.1544665616949213 -0.16243630217177504 0.6347975436733332
-0.1540006425671577 -0.16187310269422486 0.6306521730547288
-0.15353472343939428 -0.16130990321667488 0.6265068024361242
-0.15306880431163028 -0.16074670373912459 0.6223614318175198
-0.15071457287961354 -0.1564254775736778 0.6184274525609083
-0.1502545219381063 -0.15586937151478492 0.6143342923055217
-0.14979447099659893 -0.15531326545589208 0.6102411320501352
-0.1493344200550912 -0.15475715939699883 0.6061479717947487
-0.14705592005933968 -0.1505641806854041 0.6024645904723385
-0.14483340460622196 -0.14647422676901628 0.5988717127352103
-0.1409862572315279 -0.13911800265572985 0.595841285176276
-0.13423813003734744 -0.1259207940104759 0.5939150085466809
-0.12808066491520498 -0.11387873410193304 0.5921573384819319
-0.12370828211422513 -0.10539998431104161 0.5900761536888519
-0.11841691293623752 -0.09504879777886628 0.5885995793735909
-0.11353894219907872 -0.08550631769471757 0.5872383652796946
-0.10902774490870586 -0.07668133439354272 0.5859795005462055
-0.10577736707547863 -0.07038520775991414 0.5843530912321585
-0.101818427987058 -0.06263837307620558 0.5832737115415626
-0.09812926910235298 -0.055419443114556086 0.5822678857163613
-0.09544742136353514 -0.05022834858442934 0.5808825557832866
-0.09217071572007038 -0.0438146810584494 0.5800102166289839
-0.0897765392750985 -0.039182090156814814 0.5787541696174012
-0.08684702805412678 -0.03344637105756825 0.577993095307223
-0.08409060788274694 -0.028049548642500578 0.5772769893010482
-0.08206187356115593 -0.02412689773410128 0.5761800217835003
-0.0795753708246631 -0.01925716088802884 0.5755500481808745
-0.0777374709921161 -0.01570477584831893 0.5745415250922519
-0.07548325552263063 -0.011288705631164485 0.5739849382890427
-0.07334660212275179 -0.007102942747663231 0.5734573786562115
-0.07131854784753941 -0.003129928541713089 0.5729566331591394
-0.06980695595004782 -0.00021139062064410782 0.5720909308503368
-0.06795137978561402 0.003424773457503372 0.571644754379403
-0.06656334201216457 0.006103798367799526 0.5708387635623451
-0.064859247017645 0.009444077651206093 0.5704400318090341
-0.06323287697632865 0.012632004482534905 0.5700594864872113
-0.06200977385325462 0.014991008218331825 0.5693298515896201
-0.06050830950966879 0.01793494476465747 0.5689882571272934
-0.1908356934691109 -0.25201138547644897 0.6816205933999024
-0.17923277825458472 -0.2278313555225022 0.6739174542429557
-0.1689484235645483 -0.20639915509146278 0.6670897032982999
-0.15976995110741465 -0.18727157078686407 0.6609961441126753
-0.1572781329721126 -0.1823563845353786 0.6563410447561596
-0.15681230878967928 -0.18175584761800798 0.6520307334271794
-0.15439182103519794 -0.17697719612031526 0.6475539189076017
-0.15393209423004012 -0.17638451989436213 0.6433000271363377
-0.1515800932424117 -0.17173700936994102 0.6389938580038896
-0.15112630625440504 -0.1711519907101178 0.6347949278729316
-0.15067251926639882 -0.17056697205029472 0.6305959977419734
-0.15021873227839225 -0.1699819533904717 0.6263970676110152
-0.14976494529038561 -0.1693969347306484 0.622198137480057
-0.14931115830237954 -0.16881191607082552 0.6179992073490989
-0.14704810070966565 -0.16432027938687552 0.6140706905803108
-0.14660010200796814 -0.16374272294079747 0.6099253199617064
-0.1461521033062707 -0.16316516649471943 0.605779949343102
-0.14395733646333966 -0.1588012213678782 0.6020548115393621
-0.14181716753027318 -0.1545458355093972 0.5984223417740056
-0.13654688695947317 -0.1434778416786058 0.595841285176276
-0.13021662389996727 -0.13007518126163417 0.5939150085466809
-0.12444044735775432 -0.11784565272924481 0.5921573384819319
-0.12033654603071009 -0.10923374682679032 0.5900761536888519
-0.11537292645032936 -0.09872146205786848 0.5885995793735909
-0.11079709924019812 -0.08903046984798746 0.5872383652796946
-0.10656532737770803 -0.08006814101210334 0.5859795005462055
-0.10351431952654437 -0.07367302430186577 0.5843530912321585
-0.09980066789344766 -0.06580565893151892 0.5832737115415626
-0.09710749457505212 -0.060162734387204764 0.5818148508230753
-0.09382261326656789 -0.05320163988355253 0.5808825557832866
-0.09074898264500322 -0.046688213303794114 0.5800102166289839
-0.0885015007782995 -0.0419827054066162 0.5787541696174012
-0.0857535983850395 -0.036157798367325626 0.577993095307223
-0.08316805662928804 -0.030677057708415348 0.5772769893010482
-0.08126353680825005 -0.02669261830643663 0.5761800217835003
-0.07893122314160397 -0.021747181443129412 0.5755500481808745
-0.07672636051388163 -0.01707199170617306 0.5749544999607765
-0.07509142227974774 -0.013654121690040627 0.5739849382890427
-0.07308730117883293 -0.009403310322668685 0.5734573786562115
-0.07118504301801745 -0.0053685538351592055 0.5729566331591394
-0.06976587049137802 -0.002403975787458036 0.5720909308503368
-0.06802542461559538 0.0012886791190687302 0.571644754379403
-0.06672222196101883 0.004009981412386114 0.5708387635623451
-0.06512388854233486 0.007402139386923821 0.5704400318090341
-0.06359845621811445 0.010639578686342582 0.5700594864872113
-0.06245005472060767 0.013035836993725456 0.5693298515896201
-0.061041802540636333 0.016025483019839148 0.5689882571272934
-0.195148013080474 -0.28577465170649874 0.6903790028597654
-0.18282565866017408 -0.25788132706163375 0.6816205933999024
-0.17198798187927317 -0.23334877211841665 0.6739174542429557
-0.16238190358170723 -0.21160410779707672 0.6670897032982999
-0.1538087720890043 -0.19219765901362548 0.6609961441126753
-0.15335603642972118 -0.1915745218374356 0.6566278965195751
-0.15290330077043773 -0.19095138466124525 0.652259648926475
-0.15057911123492113 -0.18597688325108996 0.6477204220981992
-0.15013238022903128 -0.18536201077126907 0.643410110769219
-0.14968564922314093 -0.18474713829144795 0.6390997994402388
-0.14923891821725083 -0.1841322658116271 0.6347894881112586
-0.14699311573148754 -0.17931213627583154 0.6305383518225456
-0.14655223218390062 -0.17870531213190002 0.6262844600512816
-0.14611134863631375 -0.1780984879879681 0.6220305682800175
-0.14567046508872725 -0.17749166384403675 0.6177766765087535
-0.14349978464247537 -0.17281961061962886 0.6138002772181407
-0.14306459745113417 -0.17222062683744643 0.6096013470871825
-0.1426294102597929 -0.17162164305526373 0.6054024169562244
-0.1405252081761595 -0.1670840594042313 0.6016345787244974
-0.13847401035447426 -0.16266077621622074 0.5979616512839756
-0.13197276139549488 -0.14769608539403473 0.595841285176276
-0.12606660967604133 -0.13410120001305414 0.5939150085466809
-0.12067742210263883 -0.1216962719249909 0.5921573384819319
-0.11684605230467 -0.11295970882237108 0.5900761536888519
-0.11221508081515694 -0.10229670017260611 0.5885995793735909
-0.10794591292106334 -0.09246675967629625 0.5872383652796946
-0.1039977427343763 -0.08337593004222883 0.5859795005462055
-0.10114911584167265 -0.0768881344634835 0.5843530912321585
-0.09768441658970715 -0.06890800254628034 0.5832737115415626
-0.09516982073312637 -0.06318326782632977 0.5818148508230753
-0.09210521357764792 -0.05612242758722248 0.5808825557832866
-0.0892376912803229 -0.049515669919344286 0.5800102166289839
-0.087139121985148 -0.04474188879481471 0.5787541696174012
-0.0845755402675036 -0.03883354229547835 0.577993095307223
-0.0821634285449372 -0.03327429222205797 0.5772769893010482
-0.08038500275558011 -0.02923199648714239 0.5761800217835003
-0.07820917987078614 -0.024215740155714652 0.5755500481808745
-0.07615225646814451 -0.01947360093387248 0.5749544999607765
-0.07462548286897201 -0.01600606277929079 0.5739849382890427
-0.07275587189258735 -0.011694397965661078 0.5734573786562115
-0.07098128714531111 -0.007601881014123379 0.5729566331591394
-0.06965593454146883 -0.004594188520405257 0.5720909308503368
-0.0680323365642902 -0.0008486869900723169 0.571644754379403
-0.06681525513226905 0.0019122070894496005 0.5708387635623451
-0.06532426065153579 0.005352896104737774 0.5704400318090341
-0.06390127146194764 0.008636652910518738 0.5700594864872113
-0.06282870492363796 0.011067800971841955 0.5693298515896201
-0.0615150546821624 0.014100206058060255 0.5689882571272934
-0.1860753205808825 -0.29176338639032373 0.6903790028597654
-0.17463519699894894 -0.26349677091139867 0.6816205933999024
-0.16457345413020744 -0.2386359016487889 0.6739174542429557
-0.15565513226463581 -0.2166002327955685 0.6670897032982999
-0.15324334261356617 -0.21097924410059823 0.6620884578183317
-0.15279221220211076 -0.21031542585853408 0.6575366639002473
-0.15045328020605508 -0.20485888760689153 0.6527364514864001
-0.15000838109559408 -0.20420423844580016 0.6482475298492537
-0.14956348198513345 -0.20354958928470904 0.6437586082121073
-0.14730040631491584 -0.19825957414668208 0.639211514451067
-0.14686156870937328 -0.19761384421922495 0.6347837518945794
-0.14642273110383078 -0.19696811429176755 0.6303559893380918
-0.14598389349828833 -0.19632238436431063 0.6259282267816042
-0.1455450558927458 -0.19567665443685334 0.6215004642251166
-0.14336641188358742 -0.19056356669194804 0.617313668181674
-0.1429334728337359 -0.189926516225618 0.6129454205885738
-0.14250053378388494 -0.18928946575928854 0.6085771729954738
-0.14039116486165892 -0.18432890669735338 0.604617308808397
-0.1399639679018806 -0.1837003054599853 0.6003069974794168
-0.1318333104424758 -0.16314564823305905 0.5984223417740056
-0.12594608759372958 -0.14834313927711093 0.5963052649136694
-0.12179218292857139 -0.1379948770702953 0.5939150085466809
-0.11679530280146977 -0.12542679159291598 0.5921573384819319
-0.11324024563200007 -0.11657419322313507 0.5900761536888519
-0.10894649244311085 -0.10577098379470366 0.5885995793735909
-0.10498819701834348 -0.09581179597645173 0.5872383652796946
-0.10132752487476539 -0.08660143709550067 0.5859795005462055
-0.09868409019134596 -0.08002736531920274 0.5843530912321585
-0.09547176256037514 -0.07194234228189254 0.5832737115415626
-0.09313822576812873 -0.06614144700831856 0.5818148508230753
-0.09029691716292401 -0.05898782923060664 0.5808825557832866
-0.08763833308814593 -0.05229426054678334 0.5800102166289839
-0.08514539614805412 -0.046017744866406966 0.5791922298958652
-0.08331401630265237 -0.041470962205815816 0.577993095307223
-0.08107771507632344 -0.03583868902653141 0.5772769893010482
-0.0794271384101894 -0.031742526216537045 0.5761800217835003
-0.07740995358174456 -0.026660400856367943 0.5755500481808745
-0.07550299933924667 -0.021855992068526505 0.5749544999607765
-0.07408589711624836 -0.018342207817013168 0.5739849382890427
-0.07235264134470666 -0.01397394464974314 0.5734573786562115
-0.07070748131186701 -0.00982770605431283 0.5729566331591394
-0.06947725659383011 -0.0067798673439459405 0.5720909308503368
-0.0679721088104396 -0.002985215547617385 0.571644754379403
-0.06684234971340722 -0.00018745435102064082 0.5708387635623451
-0.0654601656021672 0.0032983701603593292 0.5704400318090341
-0.0641410238657419 0.006625203800987956 0.5700594864872113
-0.06314535078031008 0.009088842366631048 0.5693298515896201
-0.062182611112272475 0.011470992300736423 0.5686243504875281
-0.17681899420502337 -0.29746418583680195 0.6903790028597654
-0.16627239148224868 -0.2688521752606247 0.6816205933999024
-0.1569965122511091 -0.24368752635509536 0.6739174542429557
-0.14877474812449107 -0.22138259951475409 0.6670897032982999
-0.1483385823728275 -0.22069531226497852 0.6624732508906781
-0.14790241662116374 -0.22000802501520283 0.6578567984830564
-0.14746625086950038 -0.2193207377654278 0.6532403460754347
-0.14525053775483207 -0.21365564518521107 0.6484330760640784
-0.14482048098387498 -0.21297798414871044 0.6438812821459939
-0.14439042421291814 -0.21230032311221006 0.6393294882279095
-0.14396036744196108 -0.21162266207570943 0.6347776943098251
-0.14353031067100408 -0.2109450010392089 0.6302259003917406
-0.14139956811570195 -0.2054738493492527 0.6258029216635216
-0.14097545156317481 -0.2048055485992314 0.6213140000263752
-0.14055133501064826 -0.2041372478492102 0.6168250783892287
-0.14012721845812137 -0.2034689470991888 0.6123361567520824
-0.13807187134838428 -0.19817419394265248 0.6082171765556538
-0.13765353314989012 -0.1975149984216324 0.6037894139991662
-0.13263058087081575 -0.18375490868413544 0.6007611094236973
-0.12664373001069298 -0.16720613005684315 0.5984223417740056
-0.12122437019360323 -0.15222600310695927 0.5963052649136694
-0.11739756200069938 -0.14175236984419154 0.5939150085466809
-0.11279792063730344 -0.12903353016049893 0.5921573384819319
-0.10952268450855188 -0.12007363296936073 0.5900761536888519
-0.10557038703629285 -0.10914088422568147 0.5885995793735909
-0.10192687044054514 -0.09906227760147676 0.5872383652796946
-0.0985573089815234 -0.08974147898587745 0.5859795005462055
-0.09612167525827499 -0.08308761882717282 0.5843530912321585
-0.09316488942784161 -0.07490568361137677 0.5832737115415626
-0.09101471461901223 -0.0690343525674638 0.5818148508230753
-0.08839950859263922 -0.06179501700822712 0.5808825557832866
-0.08595248644191514 -0.05502124305262531 0.5800102166289839
-0.08415780639080016 -0.05012511163836613 0.5787541696174012
-0.0819702714623335 -0.044067455283306085 0.577993095307223
-0.07991198769156053 -0.03836771737179303 0.5772769893010482
-0.07839088906854247 -0.03422172990487761 0.5761800217835003
-0.07653433301433475 -0.029078750960125202 0.5755500481808745
-0.07515615747481373 -0.025324027608518977 0.5745415250922519
-0.0734731975275697 -0.020660251310101744 0.5739849382890427
-0.071878007475059 -0.01623970073755069 0.5734573786562115
-0.07036389573098575 -0.012043832335140007 0.5729566331591394
-0.06923001298202412 -0.008958855256961454 0.5720909308503368
-0.06784480079156523 -0.0051187980578263955 0.571644754379403
-0.06680347896535294 -0.002286930796678063 0.5708387635623451
-0.06553146927245085 0.0012405891228496652 0.5704400318090341
-0.06457173835201216 0.0038493956198720177 0.5696871157502358
-0.06339967979939264 0.0071009141713135136 0.5693298515896201
-0.062279028037380744 0.010209820279923273 0.5689882571272934
-0.16738816882949975 -0.30287142404514567 0.6903790028597654
-0.15774549518946454 -0.273942254971785 0.6816205933999024
-0.14926463376883756 -0.24849866089364095 0.6739174542429557
-0.14518294512617289 -0.23653228429870504 0.6680280334574308
-0.1447564665044081 -0.2358111483321344 0.6632765920634044
-0.14432998788264328 -0.23509001236556348 0.658525150669378
-0.143903509260879 -0.23436887639899334 0.6537737092753516
-0.14175915885684426 -0.22832013867586953 0.6488202105386105
-0.1413388256844294 -0.227609394096653 0.6441372362164064
-0.14091849251201496 -0.22689864951743685 0.6394542618942023
-0.14049815933960028 -0.22618790493822036 0.6347712875719982
-0.13843264274194553 -0.22034130103726488 0.6301580840373261
-0.1380182804259715 -0.21964065262491533 0.6255416316297044
-0.13760391810999678 -0.2189400042125651 0.6209251792220827
-0.1371895557940227 -0.2182393558002155 0.616308726814461
-0.13519930965523372 -0.21258596817870493 0.6120187247194028
-0.13479075093888657 -0.2118951331173961 0.6074669308013184
-0.1328611291719622 -0.2064074641420311 0.6033583134777896
-0.1267932545193972 -0.18783026395132474 0.6007611094236973
-0.12132916750727242 -0.17110159961730187 0.5984223417740056
-0.11638301897569138 -0.15595863825020914 0.5963052649136694
-0.11288708385271212 -0.14536997014302255 0.5939150085466809
-0.1086892205437261 -0.13251292821222035 0.5921573384819319
-0.1056970377183277 -0.12345457453651103 0.5900761536888519
-0.10209009640313732 -0.11240307578066717 0.5885995793735909
-0.09876495434740219 -0.10221499671844286 0.5872383652796946
-0.09568982892328477 -0.09279295687111523 0.5859795005462055
-0.0934643998366346 -0.08606587488665027 0.5843530912321585
-0.09076607379737621 -0.07779510207460934 0.5832737115415626
-0.08880138293490641 -0.07185912955524336 0.5818148508230753
-0.08641486037997549 -0.0645412205646633 0.5808825557832866
-0.08418181506873564 -0.057693926234369516 0.5800102166289839
-0.08208790305064252 -0.05127326301833256 0.5791922298958652
-0.08054563186047212 -0.04662045910276008 0.577993095307223
-0.07866739682283724 -0.04085888141219934 0.5772769893010482
-0.07727727738363162 -0.03666716087744158 0.5761800217835003
-0.0755831823003418 -0.031468403847404965 0.5755500481808745
-0.07398166232025898 -0.026553736815238465 0.5749544999607765
-0.07278798876345799 -0.022957905629489617 0.5739849382890427
-0.07133243868997047 -0.018489430201373107 0.5734573786562115
-0.0699508694801541 -0.014248072807521899 0.5729566331591394
-0.06891444770564564 -0.011129001861454048 0.5720909308503368
-0.06765053814531165 -0.007247328932352311 0.571644754379403
-0.06669868124884161 -0.0043841503177436646 0.5708387635623451
-0.06553810129427276 -0.0008184162263461115 0.5704400318090341
-0.06466078853546786 0.0018192488588742025 0.5696871157502358
-0.0635914409888493 0.005105978231012651 0.5693298515896201
-0.06256899530160705 0.008248550804636238 0.5689882571272934
-0.15779215154035994 -0.30797976472406696 0.6903790028597654
-0.14906292313777283 -0.2787619867507373 0.6816205933999024
-0.14311123678382512 -0.2590022441111398 0.6745125453941829
-0.14268910478474625 -0.258234388855354 0.6695431395327347
-0.1405539004200209 -0.25155197579640565 0.664128329128477
-0.1401381260730442 -0.250795685066863 0.6592337665712377
-0.13972235172606806 -0.25003939433732014 0.6543392040139984
-0.1393065773790914 -0.2492831036077774 0.649444641456759
-0.137253241547 -0.242832653245325 0.6444083810101366
-0.13684363619067236 -0.24208758386811463 0.6395864408040958
-0.13643403083434494 -0.24134251449090469 0.6347645005980549
-0.13445271349291296 -0.23510246723251285 0.6300165023052197
-0.13404909674071205 -0.23436829108576965 0.6252650609111933
-0.1336454799885107 -0.2336341149390261 0.6205136195171669
-0.1332418632363097 -0.23289993879228302 0.6157621781231405
-0.13133509450771974 -0.22687146442665693 0.6113564159609776
-0.13093729377109564 -0.2261478675729744 0.6066734416387735
-0.12631215509688234 -0.21047888343768317 0.6033583134777896
-0.12083079853370314 -0.19172025342501664 0.6007611094236973
-0.1158948677637701 -0.17482821255628478 0.5984223417740056
-0.11142681176914268 -0.15953736104662064 0.5963052649136694
-0.10826519978198504 -0.14884410783205157 0.5939150085466809
-0.10447325731168071 -0.135861552002276 0.5921573384819319
-0.10176708071283354 -0.12671368134344518 0.5900761536888519
-0.09850905517031859 -0.11555433907044517 0.5885995793735909
-0.09550556916835579 -0.10526684197421396 0.5872383652796946
-0.09272791455667191 -0.09575285931095068 0.5859795005462055
-0.0907148863364492 -0.08895919431847359 0.5843530912321585
-0.0882776830103937 -0.08060774616441076 0.5832737115415626
-0.08650041500696472 -0.07461299025780974 0.5818148508230753
-0.08434493113310927 -0.06722372972855814 0.5808825557832866
-0.08232806640747699 -0.060309672476392524 0.5800102166289839
-0.08084435838267234 -0.055310513566266144 0.5787541696174012
-0.07904150344435644 -0.0491274541576359 0.577993095307223
-0.07734517073107973 -0.043309722669604346 0.5772769893010482
-0.07608740235574189 -0.0390764057890995 0.5761800217835003
-0.0745574401106866 -0.03382700121931378 0.5755500481808745
-0.07341774511571478 -0.02999315059842787 0.5745415250922519
-0.07203094704223711 -0.025232903267762723 0.5739849382890427
-0.07071647339996462 -0.02072091282984273 0.5734573786562115
-0.06946881016641634 -0.01643825215223344 0.5729566331591394
-0.06853087218952378 -0.013288165484730066 0.5720909308503368
-0.0673895125854571 -0.00936870756820262 0.571644754379403
-0.06652805998656705 -0.006477043211750536 0.5708387635623451
-0.06548005512262808 -0.002876613897535074 0.5704400318090341
-0.06447985048653344 0.0005595973414798203 0.5700594864872113
-0.06372044510353767 0.00310600330665 0.5693298515896201
-0.06279721452151701 0.006279141005564634 0.5689882571272934
-0.14804041244812716 -0.3127841665580532 0.6903790028597654
-0.14023324397752895 -0.28330661410410923 0.6816205933999024
-0.139816313185244 -0.2824883413511021 0.6764122640985581
-0.13939938239295882 -0.2816700685980945 0.6712039347972139
-0.13730691041291113 -0.27430367548464885 0.6655066962901733
-0.13689655607877949 -0.27349830975750244 0.660380520574829
-0.1364862017446481 -0.2726929440303565 0.6552543448594847
-0.13447146034656185 -0.2655803422274496 0.6498932504474412
-0.13406747822472118 -0.2647874826710887 0.644846676864161
-0.1336634961028806 -0.26399462311472804 0.6398001032808808
-0.13325951398103997 -0.26320176355836716 0.6347535296976007
-0.13132491986325717 -0.2563430520496972 0.6297878926411488
-0.13092711507728383 -0.2555623161976053 0.6248184867797005
-0.13052931029131057 -0.25478158034551424 0.6198490809182524
-0.13013150550533684 -0.25400084449342214 0.6148796750568042
-0.12827315831053848 -0.24738400411583278 0.6102881409988443
-0.12509983943006564 -0.23547726122950663 0.6062592953350877
-0.11963852617457316 -0.21434258548680582 0.6033583134777896
-0.11474909713793541 -0.19542103815524475 0.6007611094236973
-0.1103461937779419 -0.17838229115674054 0.5984223417740056
-0.10636063975209986 -0.16295863972885816 0.5963052649136694
-0.1035364710300891 -0.15217135435681728 0.5939150085466809
-0.10015419158787792 -0.13907609684326938 0.5921573384819319
-0.09773669188516436 -0.12984773704522154 0.5900761536888519
-0.09483079739318911 -0.11859156417860504 0.5885995793735909
-0.09215193152306732 -0.10821480156597636 0.5872383652796946
-0.08967448893356841 -0.09861826523902902 0.5859795005462055
-0.08787584819559068 -0.09176472176567826 0.5843530912321585
-0.08617322247169171 -0.08527703405173011 0.5828135028767885
-0.08411408161273282 -0.07729321694712712 0.5818148508230753
-0.0821917636223016 -0.06983989718723015 0.5808825557832866
-0.08039306988426206 -0.06286590035295633 0.5800102166289839
-0.07870644650228567 -0.056326429025650486 0.5791922298958652
-0.07745937060713753 -0.051585966346487544 0.577993095307223
-0.07594661429380627 -0.045717822459580636 0.5772769893010482
-0.07482243824787047 -0.041447087005995226 0.5761800217835003
-0.07345811872907097 -0.03615221542500248 0.5755500481808745
-0.07243941026297483 -0.032284457893055174 0.5745415250922519
-0.07120281947268718 -0.027482999076915877 0.5739849382890427
-0.0700307194884163 -0.02293194641901542 0.5734573786562115
-0.06891819352411545 -0.018612208926684963 0.5729566331591394
-0.06807966497638332 -0.015434215292972318 0.5720909308503368
-0.06706198171271516 -0.011480840420780887 0.571644754379403
-0.06629178356111577 -0.008563544046090315 0.5708387635623451
-0.06535738804208023 -0.004931972698104975 0.5704400318090341
-0.06446561094996567 -0.0014660398350539322 0.5700594864872113
-0.06378656483197141 0.0011029631320160094 0.5693298515896201
-0.06296346047229383 0.0043035344524104185 0.5689882571272934
-0.13814257534194363 -0.3172798881825367 0.6903790028597654
-0.1360283058215508 -0.30882300804480023 0.6839752692135888
-0.13561753387494999 -0.3079500732237753 0.6785038817625897
-0.13520676192834977 -0.30707713840275136 0.6730324943115906
-0.1347959899817494 -0.3062042035817272 0.6675611068605916
-0.13277213575695485 -0.29807072383701394 0.6616411953155361
-0.13236816495555723 -0.29721224218524694 0.6562603975477517
-0.13196419415415975 -0.2963537605334803 0.6508795997799673
-0.1300194254396851 -0.2885131906352946 0.6453278046985538
-0.12962203423867855 -0.28766869134609513 0.6400346456882586
-0.12922464303767192 -0.28682419205689497 0.6347414866779635
-0.1288272518366654 -0.28597969276769547 0.6294483276676683
-0.12696392410421603 -0.2784310359612333 0.6243289710851158
-0.12657290161041349 -0.2776000708637655 0.6191206417837716
-0.1247745240742226 -0.27030265877305704 0.6142449391367304
-0.1217158491432582 -0.2571701938211437 0.609910269195356
-0.11647897683626465 -0.2339232371165351 0.6066734416387735
-0.11284682847106399 -0.21799475728194692 0.6033583134777896
-0.10855415223711892 -0.1989289659142815 0.6007611094236973
-0.1046886214211123 -0.1817603279721796 0.5984223417740056
-0.10118950262469736 -0.16621909790791825 0.5963052649136694
-0.09870556428139611 -0.15534842612670308 0.5939150085466809
-0.09573628576873996 -0.1421533903675391 0.5921573384819319
-0.09360984874249834 -0.1328536487072415 0.5900761536888519
-0.09105895306809349 -0.12151175373065369 0.5885995793735909
-0.0887073510470031 -0.11105596621352447 0.5872383652796946
-0.08653256541641974 -0.10138634684564389 0.5859795005462055
-0.08495008720194282 -0.09447968851138934 0.5843530912321585
-0.08304208490834086 -0.08599168676951009 0.5832737115415626
-0.0816447377751653 -0.07989716456304088 0.5818148508230753
-0.0799574827639306 -0.07238714109925133 0.5808825557832866
-0.07837873510704434 -0.0653600871757639 0.5800102166289839
-0.07721185462628223 -0.06027763016609014 0.5787541696174012
-0.07580079472291253 -0.0539935694146044 0.577993095307223
-0.07447310771737067 -0.048080804278368916 0.5772769893010482
-0.07348363342687084 -0.04377686495198349 0.5761800217835003
-0.0722863030529759 -0.038441751758776566 0.5755500481808745
-0.07138958645802132 -0.03454390432549187 0.5745415250922519
-0.07030442331673827 -0.029705972484042806 0.5739849382890427
-0.06927585371164413 -0.025120348945679986 0.5734573786562115
-0.06829956294540059 -0.020767797698005065 0.5729566331591394
-0.06756127135326874 -0.017565033394115796 0.5720909308503368
-0.06666826876051393 -0.013581643069962504 0.571644754379403
-0.06599008514879369 -0.010641593696345803 0.5708387635623451
-0.06517022111022792 -0.006982464237066125 0.5704400318090341
-0.06438775163841781 -0.003490230207267621 0.5700594864872113
-0.0637897349219613 -0.0009011655340669287 0.5693298515896201
-0.0630675690892552 0.0023236808303236842 0.5689882571272934
-0.13281894837364464 -0.3460172136625424 0.6933780029218763
-0.1307895547398993 -0.3366095438125747 0.6865804537025675
-0.13038602381092998 -0.3356770388556015 0.680818021935745
-0.12998249288195965 -0.3347445338986269 0.6750555901689225
-0.12957896195298996 -0.3338120289416534 0.6692931584021
-0.12764137341589213 -0.32478090627223083 0.6630336537179453
-0.12724487295266057 -0.323864647763001 0.6573716171778508
-0.12684837248942887 -0.3229483892537715 0.6517095806377563
-0.12499072197357906 -0.31425794509656874 0.6458583656184584
-0.1246010111962698 -0.3133573766257586 0.640293285963295
-0.12421130041896086 -0.3124568081549485 0.6347282063081318
-0.12382158964165182 -0.31155623968413837 0.6291631266529684
-0.12343187886434245 -0.31065567121332854 0.623598046997805
-0.12304216808703308 -0.3097551027425183 0.6180329673426416
-0.11742608827483396 -0.28059600552492825 0.6139123124824273
-0.11357787871898077 -0.26086648306818855 0.609910269195356
-0.10907379504869125 -0.23746650319903623 0.6066734416387735
-0.10594376457201658 -0.22143179457047676 0.6033583134777896
-0.10225207749394603 -0.20224057480094598 0.6007611094236973
-0.09892773403415048 -0.18495898928810042 0.5984223417740056
-0.09591850367496099 -0.16931551790521815 0.5963052649136694
-0.09377724705762457 -0.15837218775544457 0.5939150085466809
-0.09122389979393014 -0.14509039565790285 0.5921573384819319
-0.08939062398077746 -0.13572844985760282 0.5900761536888519
-0.08719724455000029 -0.124312025852062 0.5885995793735909
-0.08517522712522378 -0.11378753203036912 0.5872383652796946
-0.08330524470440828 -0.10405437236844411 0.5859795005462055
-0.08194049072837496 -0.0971014152112107 0.5843530912321585
-0.08030004449649585 -0.08855766998544179 0.5832737115415626
-0.07909482043850234 -0.08242226332363249 0.5818148508230753
-0.07764429352345548 -0.074862947642413 0.5808825557832866
-0.07628704998105532 -0.06778977148354795 0.5800102166289839
-0.07501437156713936 -0.061157300350701826 0.5791922298958652
-0.07406741260583685 -0.05634788734843167 0.577993095307223
-0.0729261051748653 -0.05039633614820029 0.5772769893010482
-0.07207230913146546 -0.0460634404175091 0.5761800217835003
-0.07104314952299867 -0.040693350724693676 0.5755500481808745
-0.07026930975020296 -0.036769260094895416 0.5745415250922519
-0.06933664518293163 -0.0318996296827735 0.5739849382890427
-0.06845262103103375 -0.02728396072075165 0.5734573786562115
-0.06778289945933978 -0.02389308311705797 0.5725599300166998
-0.06697620291209963 -0.019678516927951466 0.5720909308503368
-0.06620876227600372 -0.015669042277165708 0.571644754379403
-0.06562326248950928 -0.012709141378398178 0.5708387635623451
-0.06491873903823597 -0.009026064926828416 0.5704400318090341
-0.0642463493896303 -0.005510976143647336 0.5700594864872113
-0.06372995224501124 -0.0029044048585667765 0.5693298515896201
-0.06310943762976537 0.0003415340157988064 0.5689882571272934
-0.12329355599460003 -0.35885379687552443 0.6944511779347378
-0.12290576272027952 -0.35787434286948416 0.6884768821960097
-0.12251796944595866 -0.356894888863443 0.6825025864572817
-0.12213017617163806 -0.35591543485740196 0.6765282907185536
-0.12036157460218677 -0.3461713249530567 0.6699121967792644
-0.11998078152645959 -0.3452095514304318 0.6640457452436115
-0.11959998845073212 -0.34424777790780664 0.6581792937079585
-0.11790760997210793 -0.33488332630709855 0.6520058631016326
-0.11753356884983478 -0.33393860627223965 0.6462434313348101
-0.11715952772756175 -0.3329938862373802 0.6404809995679877
-0.11678548660528834 -0.3320491662025202 0.6347185678011651
-0.11641144548301502 -0.3311044461676611 0.6289561360343426
-0.11246208505323119 -0.3068878508331314 0.6237900072525988
-0.10992906621696373 -0.2917689367167676 0.6188620096470782
-0.10855441206095338 -0.2841459909028727 0.6139123124824273
-0.10532782064083118 -0.2643053285912373 0.609910269195356
-0.10156097059404365 -0.2407754185125583 0.6066734416387735
-0.0982046905762532 -0.21981016477626267 0.6037894139991662
-0.09584909229532955 -0.20535259665708241 0.6007611094236973
-0.09306921691738704 -0.1879751184119633 0.5984223417740056
-0.09109607160398979 -0.1758762324175584 0.595841285176276
-0.08875638301287139 -0.16123965515537741 0.5939150085466809
-0.08662148684361859 -0.14788421424472803 0.5921573384819319
-0.08508318146544838 -0.13846930341464903 0.5900761536888519
-0.08324948287898715 -0.12698961701232708 0.5885995793735909
-0.08155904553760165 -0.11640680329083501 0.5872383652796946
-0.07999571177343766 -0.10661970878835329 0.5859795005462055
-0.07885002888325353 -0.09962731453741452 0.5843530912321585
-0.07747875763547465 -0.09103625747279492 0.5832737115415626
-0.07646684606329998 -0.08486602126128412 0.5818148508230753
-0.07525447873938186 -0.0772648734945648 0.5808825557832866
-0.07412007874698215 -0.07015255547123603 0.5800102166289839
-0.07305635927588378 -0.06348338126747655 0.5791922298958652
-0.07226093489478631 -0.05864659672040893 0.577993095307223
-0.0713071333710277 -0.052662132918676795 0.5772769893010482
-0.07058985816834266 -0.04830455682864919 0.5761800217835003
-0.06972988498158564 -0.042904790266413285 0.5755500481808745
-0.06907968571737771 -0.038958329043791866 0.5745415250922519
-0.06830044015144406 -0.03406180579829627 0.5739849382890427
-0.06756183387785084 -0.029420646520624427 0.5734573786562115
-0.0669989528127973 -0.02601040564739746 0.5725599300166998
-0.06632503704479124 -0.021772580141395388 0.5720909308503368
-0.06568391573660783 -0.01774097803138775 0.571644754379403
-0.06519167759294023 -0.014764146672303306 0.5708387635623451
-0.06460319000854763 -0.01106075798023795 0.5704400318090341
-0.06404154375055097 -0.007526283411921485 0.5700594864872113
-0.06360727579940573 -0.004904777886124267 0.5693298515896201
-0.0631873719281028 -0.002369982684172792 0.5686243504875281
-0.11313378204050899 -0.37175716111790474 0.6955645486745652
-0.11277026286366712 -0.3707474477607788 0.6894783694324711
-0.11240674368682464 -0.36973773440365254 0.6833921901903769
-0.11089033832568167 -0.3595760136152921 0.6765282907185536
-0.11053350179774411 -0.3585848620295664 0.6705539949798255
-0.11017666526980666 -0.3575937104438398 0.6645796992410974
-0.10872788906112936 -0.34783463883315097 0.6581792937079585
-0.108377493920205 -0.34686137888814034 0.6523128421723055
-0.10802709877928052 -0.3458881189431305 0.6464463906366524
-0.10767670363835612 -0.3449148589981206 0.6405799391009995
-0.10732630849743169 -0.34394159905311045 0.6347134875653465
-0.10496722621038973 -0.3265186117784173 0.6290614344773782
-0.10188224131787832 -0.3029940163317175 0.6239756109410456
-0.10071013908104212 -0.29507792177396786 0.6188620096470782
-0.09957560574830163 -0.2874155584931572 0.6139123124824273
-0.09697381672009099 -0.2674833366649355 0.609910269195356
-0.0939479177230243 -0.243846717557177 0.6066734416387735
-0.0918308913317963 -0.22764711352354222 0.6033583134777896
-0.08935151561461871 -0.20826196029283775 0.6007611094236973
-0.08711885171990887 -0.19080573878846466 0.5984223417740056
