x y z
0.1881630452319126 0.03296863377818438 -0.051403403072487364
0.18102849176154145 0.03199915714002226 -0.047629340690056754
0.17599034999374427 0.03215748712358114 -0.04870075946191277
0.1689911354901228 0.031200492207711684 -0.044972097162646496
0.1639883098313943 0.031357712337831745 -0.04603600555786991
0.15712136219555753 0.0304129462157939 -0.04235184753742771
0.15034935470478894 0.029481242117443754 -0.038718625466327206
0.1454156964576925 0.029636288574083874 -0.03976782461622974
0.14048203821059668 0.02979133503072395 -0.04081702376613228
0.13387075829663067 0.0288702950247504 -0.03721928226929627
0.1273496372438626 0.027961815357945223 -0.033670603628739415
0.12248325991890069 0.028114747426426848 -0.03470549471700246
0.11608342293824363 0.027217537193516335 -0.03119787343375635
0.11125000259585016 0.027369433547095767 -0.03222575584076037
0.1049687804198016 0.02648327229250312 -0.028758410503596843
0.09877149899971792 0.02560895348569104 -0.02533740194304046
0.09400267133468376 0.02575881993260734 -0.02635154797456396
0.08791931242776276 0.024895113016798205 -0.02296922208108987
0.08191617797870872 0.024042796258981855 -0.019631500700563964
0.07599169143963763 0.023201645823062056 -0.016337507277976338
0.23737633750517767 0.04380972031328947 -0.06260951008422766
0.23215128416151606 0.0438097203132894 -0.06372012945749872
0.22692623081785465 0.04380972031328958 -0.06483074883076989
0.21932953845450548 0.042546015059997014 -0.060849480911659204
0.2051371923828158 0.03766960982862486 -0.042272246830777016
0.20009656336888162 0.037669609828624766 -0.04334366560263292
0.19088171541526833 0.03533324051668795 -0.03495632949583927
0.18794889930175634 0.0364932364914674 -0.04071646358175285
0.18703462831494896 0.03886270982877711 -0.051403403072487364
0.17993404731314608 0.0376696098286249 -0.047629340690056754
0.17489341829921176 0.03766960982862486 -0.04870075946191277
0.1679277174221765 0.0364932364914673 -0.044972097162646496
0.16292242195228193 0.03649323649146766 -0.04603600555786991
0.15791712648238673 0.03649323649146757 -0.04709991395309332
0.15111808472538416 0.03533324051668795 -0.04340835011479749
0.1444130442692451 0.034189282262299614 -0.03976782461622974
0.1394769503577749 0.03418928226229949 -0.04081702376613228
0.13289786327708064 0.033061031413393976 -0.03721928226929627
0.12640849603984125 0.03194816666415552 -0.033670603628739415
0.12153971626596839 0.031948166664155564 -0.03470549471700246
0.11517121927299882 0.03085037541279552 -0.03119787343375635
0.11033541275200423 0.03085037541279555 -0.03222575584076037
0.10408512497760136 0.029767353468800217 -0.028758410503596843
0.09791836455919332 0.02869880477191479 -0.02533740194304046
0.09314718260388011 0.02869880477191484 -0.02635154797456396
0.08709395515719985 0.02764444112231927 -0.02296922208108987
0.08112055480895083 0.026603981921479333 -0.019631500700563964
0.07522541282004196 0.025577153923182622 -0.016337507277976338
0.23836373894749419 0.0526051997224694 -0.06775190595834413
0.23066063494672354 0.05108015091739609 -0.06372012945749872
0.22543815985147306 0.05091602802564815 -0.06483074883076989
0.21788490993848225 0.04941432846099778 -0.060849480911659204
0.20385273852273755 0.044094537078028274 -0.042272246830777016
0.19881459675494048 0.04393620709446927 -0.04334366560263292
0.18967768290610607 0.04131154527073872 -0.03495632949583927
0.18670987760620908 0.04237884687716664 -0.04071646358175285
0.18572163080080278 0.04471843307672066 -0.051403403072487364
0.17866202968375341 0.0433028871602338 -0.047629340690056754
0.1736238879159562 0.04314455717667485 -0.04870075946191277
0.16669857497129353 0.04174996635668768 -0.044972097162646496
0.16169574931256503 0.041592746226568326 -0.04603600555786991
0.154901674384919 0.040218665175026244 -0.04235184753742771
0.1482015320883985 0.03886358171328488 -0.038718625466327206
0.14326787384130205 0.03870853525664454 -0.03976782461622974
0.1383342155942063 0.03855348880000421 -0.04081702376613228
0.1317938141114296 0.037219140555539224 -0.03721928226929627
0.12534260491171123 0.0359029889870172 -0.033670603628739415
0.12047622758674935 0.03575005691853566 -0.03470549471700246
0.11414535551912139 0.03445276803615324 -0.03119787343375635
0.1093119351767279 0.03430087168257387 -0.03222575584076037
0.10309875008339767 0.03302205786107974 -0.028758410503596843
0.09696859651467622 0.03176033380267735 -0.02533740194304046
0.09219976884964205 0.031610467355761146 -0.02635154797456396
0.08618264666787742 0.030366487502006434 -0.02296922208108987
0.0802448754453998 0.02913891266575797 -0.019631500700563964
0.2365937515765858 0.06006642820899934 -0.06775190595834413
0.22894235153323453 0.058300171579528666 -0.06372012945749872
0.22372760863879695 0.05797208776551197 -0.06483074883076989
0.2162252553219137 0.05623387588567171 -0.060849480911659204
0.20236710662117674 0.050475948342933646 -0.042272246830777016
0.19733642413717936 0.0501594446283941 -0.04334366560263292
0.18828646142397962 0.04724908051721058 -0.03495632949583927
0.1852865958032212 0.04822263445745831 -0.04071646358175285
0.18422534845950042 0.05053002463013933 -0.051403403072487364
0.17721369420119112 0.04889342977023647 -0.047629340690056754
0.1721830117171936 0.04857692605569697 -0.04870075946191277
0.16530492115267675 0.04696549404564852 -0.044972097162646496
0.160309502490041 0.04665120894269648 -0.04603600555786991
0.15531408382740466 0.04633692383974396 -0.04709991395309332
0.14860129517612453 0.04475230148782099 -0.04340835011479749
0.1419813153188177 0.04318958760002926 -0.03976782461622974
0.13705496166113842 0.04287964769888244 -0.04081702376613228
0.1305597003629106 0.04134051889947746 -0.03721928226929627
0.12415301576532944 0.039822379394369084 -0.033670603628739415
0.11929384341617341 0.039516666182893845 -0.03470549471700246
0.11300684408028235 0.03802115993699237 -0.03119787343375635
0.108180579918822 0.03771751713319591 -0.03222575584076037
0.10201062917012459 0.036244173469051746 -0.028758410503596843
0.09592313217255967 0.03479051921844824 -0.02533740194304046
0.09116136505496239 0.03449093422470529 -0.02635154797456396
0.08518628631125083 0.03305856582471958 -0.02296922208108987
0.07929000407786536 0.03164508682121906 -0.019631500700563964
0.23459027473718108 0.06746837838279475 -0.06775190595834413
0.22699812965932728 0.06546265701097727 -0.06372012945749872
0.22179626528735585 0.06497093605380622 -0.06483074883076989
0.21435221248353387 0.0629979272640446 -0.060849480911659204
0.2006817628174577 0.05680754594085964 -0.042272246830777016
0.19566350429351007 0.05633318084629384 -0.04334366560263292
0.1867094239365277 0.053139986625662564 -0.03495632949583927
0.18368045850009734 0.05401883211952968 -0.04071646358175285
0.1825472579410644 0.05629174914981186 -0.051403403072487364
0.17559047019772087 0.05443572046803123 -0.047629340690056754
0.1705722116737731 0.05396135537346547 -0.04870075946191277
0.16374813133438726 0.052134672462199126 -0.044972097162646496
0.1587650495429601 0.051663632547866906 -0.04603600555786991
0.15207066043332673 0.0498656594369731 -0.04235184753742771
0.1454688257316948 0.04809254450718526 -0.038718625466327206
0.1405546383797256 0.04762801703479485 -0.03976782461622974
0.13407718956431064 0.0458824374593194 -0.03617728626531991
0.12919673995279704 0.04542109914236323 -0.03721928226929627
0.12284090258156252 0.04370246992107285 -0.033670603628739415
0.11799373062466598 0.04324427726863443 -0.03470549471700246
0.11175680852981769 0.04155202954332396 -0.03119787343375635
0.10694246348933592 0.041096939948098515 -0.03222575584076037
0.10082183608175312 0.03943052045362189 -0.028758410503596843
0.09478300327992889 0.03778637059206081 -0.02533740194304046
0.09003299599901847 0.0373373627057106 -0.02635154797456396
0.08410585737470001 0.035718019334172756 -0.02296922208108987
0.07825688304910429 0.034120031096545246 -0.019631500700563964
0.23235528561903787 0.07480374541268238 -0.06775190595834413
0.22482988803726262 0.0725605387033584 -0.06372012945749872
0.21964603579986378 0.07190566587225151 -0.06483074883076989
0.21226762989048903 0.06969980729403981 -0.060849480911659204
0.19879837034244066 0.06308308134940015 -0.042272246830777016
0.19379748819384424 0.06245132301588563 -0.04334366560263292
0.18494812678935235 0.058978449982983364 -0.03495632949583927
0.18189305076044437 0.059761719716071714 -0.04071646358175285
0.1787948417480558 0.06055604801534268 -0.04655792191820085
0.1737939595994598 0.059924289681828224 -0.047629340690056754
0.16879307745086325 0.05929253134831375 -0.04870075946191277
0.16202974188002223 0.057252400251324824 -0.044972097162646496
0.15706391465991704 0.05662507038513853 -0.04603600555786991
0.1504293045274128 0.05461770862194105 -0.04235184753742771
0.14549804420427873 0.053994745570363364 -0.04340835011479749
0.13898925098191983 0.05201944336694728 -0.03976782461622974
0.13409207964528141 0.051400786755845515 -0.04081702376613228
0.1277062779584615 0.049456854244151256 -0.03721928226929627
0.12140756025770952 0.047539431386227654 -0.033670603628739415
0.11657717226658772 0.04692921147365575 -0.03470549471700246
0.11039648250189711 0.04504189231313361 -0.03119787343375635
0.10429894561963939 0.04317996449795382 -0.02773744248545551
0.09953354401353674 0.042577954275008725 -0.028758410503596843
0.09354933500635149 0.04074493137990282 -0.02533740194304046
0.08881577524583886 0.040146943717519805 -0.02635154797456396
0.08294242611114358 0.038342223470831834 -0.02296922208108987
0.22760049072626876 0.08040419032900174 -0.06260951008422766
0.2224397664597465 0.0795868119043793 -0.06372012945749872
0.2172790421932245 0.07876943347975715 -0.06483074883076989
0.2099735647741238 0.07633290202919552 -0.060849480911659204
0.19671878787711375 0.0692963613727615 -0.042272246830777016
0.1917402173707854 0.06850783326950034 -0.04334366560263292
0.18486980851675414 0.06622863042957518 -0.03965255518652944
0.17992613653990502 0.06544562971037385 -0.04071646358175285
0.17865245445214187 0.06764290740626269 -0.051403403072487364
0.1718259353454731 0.06535372085645642 -0.047629340690056754
0.1668473648391446 0.0645651927531953 -0.04870075946191277
0.1601514486325094 0.06231362683356852 -0.044972097162646496
0.15520777665566085 0.061530626114367624 -0.04603600555786991
0.14863949305948032 0.059315856722575014 -0.04235184753742771
0.14216202037821293 0.05713170799930942 -0.038718625466327206
0.13728669797377058 0.056359532788880035 -0.03976782461622974
0.13241137556932886 0.05558735757845073 -0.04081702376613228
0.12608978528594678 0.05344380140179868 -0.03721928226929627
0.11985440332959453 0.05132947717210937 -0.033670603628739415
0.11504556631401491 0.05056783221278493 -0.03470549471700246
0.10892720847407601 0.04848730417320376 -0.03119787343375635
0.10415093875591572 0.04773081736705393 -0.03222575584076037
0.09814702435420941 0.045683368796024845 -0.028758410503596843
0.0922233448334709 0.04366328183966805 -0.02533740194304046
0.08751090404535011 0.042916904542879074 -0.02635154797456396
0.0816971406867759 0.04092858846203794 -0.02296922208108987
0.22719981950218418 0.0892458464078021 -0.06775190595834413
0.21983012368821309 0.08653454253068284 -0.06372012945749872
0.2146976204043572 0.08555546516636722 -0.06483074883076989
0.2074722810997422 0.08289066540583136 -0.060849480911659204
0.1944450677182992 0.07544125425369903 -0.042272246830777016
0.18949372210225854 0.07449673456272901 -0.04334366560263292
0.18087988639304936 0.07047505845136409 -0.03495632949583927
0.1777816569453465 0.07106495276949848 -0.04071646358175285
0.1764395851824736 0.07322113892028381 -0.051403403072487364
0.16968833963809699 0.07071865579884964 -0.047629340690056754
0.1647369940220562 0.06977413610787965 -0.04870075946191277
0.15811510524051503 0.06731335738934281 -0.044972097162646496
0.1531984673143075 0.06637545854430435 -0.04603600555786991
0.14670299235736164 0.06395546723391396 -0.04235184753742771
0.14029732168718237 0.06156893392236912 -0.038718625466327206
0.1354486595695451 0.06064400215631902 -0.03976782461622974
0.13059999745190845 0.059719070390269025 -0.04081702376613228
0.12434885721835906 0.05737800597981086 -0.03721928226929627
0.1181829645755907 0.055068866961105085 -0.033670603628739415
0.11340042427710972 0.054156548606648466 -0.03470549471700246
0.10735043644243226 0.051884864917998125 -0.03119787343375635
0.10260028534986862 0.05097872513501196 -0.03222575584076037
0.09666364543127831 0.04874369934745924 -0.028758410503596843
0.09080634135349903 0.04653854191178943 -0.02533740194304046
0.08502679333454698 0.04436265807178984 -0.021961807473907635
0.22428443032610407 0.09633832776296801 -0.06775190595834413
0.2170035351250119 0.09339687401095052 -0.06372012945749872
0.2119043179849086 0.09225706393809457 -0.06483074883076989
0.20476624733234722 0.08936662570322294 -0.060849480911659204
0.1919794537532842 0.08151169572482118 -0.042272246830777016
0.1870602194078711 0.08041211657304402 -0.04334366560263292
0.17857695800602827 0.0761218577978681 -0.03495632949583927
0.1754617283192225 0.07661414330001533 -0.04071646358175285
0.1740525913440395 0.07872711001028584 -0.051403403072487364
0.1673832820262196 0.07601379996593619 -0.047629340690056754
0.16246404768080633 0.07491422081415906 -0.04870075946191277
0.15592272132911625 0.07224665778821394 -0.044972097162646496
0.15103796958159002 0.07115478641026407 -0.04603600555786991
0.14462171351345313 0.06853196142053018 -0.04235184753742771
0.1397709643002283 0.06744769050948173 -0.04340835011479749
0.13347694969123933 0.06486862321526883 -0.03976782461622974
0.1286597329045318 0.06379184768958286 -0.04081702376613228
0.1224852118415163 0.061255585393251585 -0.03721928226929627
0.11639489350395299 0.05875391042695507 -0.033670603628739415
0.11164336971244217 0.05769181902543659 -0.03470549471700246
0.10566772249059508 0.055231221565254084 -0.03119787343375635
0.10094837784926376 0.05417632305599781 -0.03222575584076037
0.0950848711606499 0.05175592575253585 -0.028758410503596843
0.08929972297779372 0.04936787406171013 -0.02533740194304046
0.08255317367467192 0.04571332367098334 -0.017629956793205892
0.22114769949547952 0.10333573481969913 -0.06775190595834413
0.21396279027179657 0.10016703405251065 -0.06372012945749872
0.20890189158712727 0.09886761612604535 -0.06483074883076989
0.20185813400056382 0.09575439193040892 -0.060849480911659204
0.18932437924537507 0.08750169499328922 -0.042272246830777016
0.18444211086098206 0.08624814153257393 -0.04334366560263292
0.1778166850596124 0.08333249128646765 -0.03965255518652944
0.17296864015099855 0.08208772492083269 -0.04071646358175285
0.17149382861157283 0.0841553869475469 -0.051403403072487364
0.1649130373234109 0.08123392768971362 -0.047629340690056754
0.1600307689390177 0.07998037422899837 -0.04870075946191277
0.15357646051654392 0.07710865945829282 -0.044972097162646496
0.14872841560793054 0.07586389309265834 -0.04603600555786991
0.14239771049869793 0.0730408228351883 -0.04235184753742771
0.13758341260975315 0.07180472123149662 -0.04340835011479749
0.13137351417845572 0.06902922677478897 -0.03976782461622974
0.1265924967340562 0.06780167013691019 -0.04081702376613228
0.12050068834840479 0.06507271293938562 -0.03721928226929627
0.11449195472495267 0.06238097087665922 -0.033670603628739415
0.1097761366207358 0.06117015458406432 -0.03470549471700246
0.10388072725407843 0.058523071664971324 -0.03119787343375635
0.09919684648736704 0.05732045548691414 -0.03222575584076037
0.09341225960192152 0.054717075307463336 -0.028758410503596843
0.08770497655679553 0.05214848608018759 -0.02533740194304046
0.2157284757098672 0.1082960847362357 -0.06260951008422766
0.2107108899766237 0.10683834132477352 -0.06372012945749872
0.20569330424338045 0.10538059791331165 -0.06483074883076989
0.19875081106114972 0.10204766013332743 -0.060849480911659204
0.18648246443256009 0.09340534065300654 -0.042272246830777016
0.18164198021863914 0.0919990499892755 -0.04334366560263292
0.17344484617276462 0.08718458866905131 -0.03495632949583927
0.1703048528177026 0.08748029586772432 -0.04071646358175285
0.16876582217496738 0.08950061267809373 -0.051403403072487364
0.16228004336295623 0.08637388733435225 -0.047629340690056754
0.15743955914903512 0.08496759667062127 -0.04870075946191277
0.15107863827895252 0.08189456419092762 -0.044972097162646496
0.14627208464426525 0.08049813127172896 -0.04603600555786991
0.14003317813556443 0.07747760177603351 -0.04235184753742771
0.13526008270167889 0.07609088936274506 -0.04340835011479749
0.12914042886809454 0.07312170682148192 -0.03976782461622974
0.12440032905300143 0.07174458052160722 -0.04081702376613228
0.1183972452241178 0.06882562157417231 -0.03721928226929627
0.11247602620942004 0.06594646883945399 -0.033670603628739415
0.10780056773561836 0.06458812258527985 -0.03470549471700246
0.10199121428143419 0.061757166558531314 -0.03119787343375635
0.09626001787819058 0.0589642972442094 -0.02773744248545551
0.09164746142076483 0.05762422571513492 -0.028758410503596843
0.08602367591268592 0.05487763383886692 -0.02533740194304046
0.21422281055163966 0.11701780429586939 -0.06775190595834413
0.207251043472478 0.1134042120528981 -0.06372012945749872
0.202281722441999 0.11178958177319129 -0.06483074883076989
0.1954473450666945 0.10824021961605766 -0.060849480911659204
0.1834565139416509 0.09921680651846278 -0.042272246830777016
0.17866259087172245 0.09765916649081757 -0.04334366560263292
0.1706207275012941 0.09258960261398035 -0.03495632949583927
0.16747299515582964 0.09278653432421861 -0.04071646358175285
0.1658712642472199 0.09475751210946719 -0.051403403072487364
0.15948689859200943 0.09142860638023768 -0.047629340690056754
0.1546929755220808 0.08987096635259252 -0.04870075946191277
0.14989905245215263 0.08831332632494766 -0.04977217823376867
0.14367140079269888 0.08505292751389154 -0.04603600555786991
0.13891108192007243 0.08350620615182593 -0.04709991395309332
0.13280326742212575 0.0803019649727569 -0.04340835011479749
0.1267798975457535 0.07714202457163273 -0.03976782461622974
0.12208539326620507 0.0756166876671576 -0.04081702376613228
0.11617695831306728 0.0725106076298833 -0.03721928226929627
0.11034909743541393 0.06944688559931789 -0.033670603628739415
0.10571861270506612 0.06794234990732226 -0.03470549471700246
0.1000010482938427 0.0649303145847311 -0.03119787343375635
0.0943604060352251 0.06195880215337049 -0.02773744248545551
0.08979221825991794 0.06047450796908274 -0.028758410503596843
0.21044148646775998 0.12368896416459182 -0.06775190595834413
0.20358666521014662 0.11985816651518293 -0.06372012945749872
0.1986705130023356 0.11808824281238055 -0.06483074883076989
0.19195099613930236 0.11432595907002693 -0.060849480911659204
0.18024951402045467 0.10493035737447551 -0.042272246830777016
0.17550688311781137 0.10322290518556727 -0.04334366560263292
0.16762822677106987 0.09790324179960758 -0.03495632949583927
0.16447586186699759 0.09800120367358894 -0.04071646358175285
0.16281301140754081 0.0999208973166017 -0.051403403072487364
0.15653635950723893 0.09639309642993524 -0.047629340690056754
0.15179372860459545 0.09468564424102703 -0.04870075946191277
0.1456383168647662 0.09121927016284723 -0.044972097162646496
0.14092893061420855 0.0895237867851623 -0.04603600555786991
0.13489199577864835 0.08611747343347614 -0.04235184753742771
0.13021539135115978 0.08443379223831435 -0.04340835011479749
0.12429424977085732 0.08108621245700083 -0.03976782461622974
0.11964997393580312 0.07941417027129384 -0.04081702376613228
0.1138420187703759 0.07612403447017535 -0.03721928226929627
0.10811326742484705 0.07287876666751937 -0.033670603628739415
0.10353232616733678 0.07122952633278544 -0.03470549471700246
0.09791219334485805 0.06803938422956765 -0.03119787343375635
0.0933622759868708 0.06640131318593735 -0.03222575584076037
0.08784836102039442 0.0632651091848409 -0.028758410503596843
0.2064524820436452 0.13023805795883342 -0.06775190595834413
0.1997213714885688 0.12619383543776908 -0.06372012945749872
0.1948632397521206 0.12427036501288033 -0.06483074883076989
0.18826521475324534 0.12029887260513439 -0.060849480911659204
0.1768646295907078 0.1105403546361552 -0.042272246830777016
0.1721779712594658 0.10868477533515118 -0.04334366560263292
0.16447029721902368 0.10312026230558022 -0.03495632949583927
0.16131641075991426 0.10311915766676215 -0.04071646358175285
0.15959408178225556 0.10498567266168085 -0.051403403072487364
0.1534313379344985 0.10126245813113602 -0.047629340690056754
0.1487446796032563 0.09940687883013201 -0.04870075946191277
0.1427011866285891 0.09574886904312313 -0.044972097162646496
0.138047380595758 0.09390629688721387 -0.04603600555786991
0.13212041951114956 0.09031203963985204 -0.04235184753742771
0.12749900841002493 0.08848229354474785 -0.04340835011479749
0.12168593857766394 0.08495037804033094 -0.03976782461622974
0.11709647452664294 0.08313328067716129 -0.04081702376613228
0.11139473089947166 0.07966233607901138 -0.03721928226929627
0.1057707426720048 0.07623872519178014 -0.033670603628739415
0.10124386572328949 0.0744464078154031 -0.03470549471700246
0.0957267108821244 0.07108130721666403 -0.03119787343375635
0.09123049168859855 0.06930112810425326 -0.03222575584076037
0.20225973394506355 0.13665862251370092 -0.06775190595834413
0.19565897688598516 0.13240496628034454 -0.06372012945749872
0.19086366001039431 0.1303298473664554 -0.06483074883076989
0.18439363832976172 0.12615306567683948 -0.060849480911659204
0.17330520112468042 0.11604126191350776 -0.042272246830777016
0.16867914053078553 0.11403938673315124 -0.04334366560263292
0.16115005534036192 0.1082355155625174 -0.03495632949583927
0.1579977598313772 0.10813534550104505 -0.04071646358175285
0.15480095874910124 0.10803376119208245 -0.04655792191820085
0.15017489815520663 0.1060318860117261 -0.047629340690056754
0.1455488375613115 0.10403001083136958 -0.04870075946191277
0.13962322754973264 0.10018397534955452 -0.044972097162646496
0.13502959447932167 0.09819613281168238 -0.04603600555786991
0.1304359614089102 0.09620829027380963 -0.04709991395309332
0.12465679934073119 0.09244347351004945 -0.04340835011479749
0.1189575380544158 0.08873070785671867 -0.03976782461622974
0.11442741503435366 0.08677034857180299 -0.04081702376613228
0.10883750987801849 0.08312202057988782 -0.03721928226929627
0.1033238349660018 0.07952344529868947 -0.033670603628739415
0.09885548980709336 0.0775898196815307 -0.03470549471700246
0.09344675771297595 0.07405308153528777 -0.03119787343375635
0.0890086739094204 0.07213255117595686 -0.03222575584076037
0.1961312601113327 0.14071014891770062 -0.06260951008422766
0.1914034904954096 0.1384854294066466 -0.06372012945749872
0.1866757208794867 0.1362607098955929 -0.06483074883076989
0.18034008764736037 0.13188276090336573 -0.060849480911659204
0.16957474134853348 0.12142765047518302 -0.042272246830777016
0.16501384385528078 0.1192814550245877 -0.04334366560263292
0.15767077781296118 0.11324395343302653 -0.03495632949583927
0.15452318418918728 0.11304481680465689 -0.04071646358175285
0.15268705438809718 0.11479950272729032 -0.051403403072487364
0.14677025388227075 0.11069667322220733 -0.047629340690056754
0.14220935638901785 0.108550477771612 -0.04870075946191277
0.13640747720220112 0.1045202121676738 -0.044972097162646496
0.13187855045545474 0.10238906100842855 -0.04603600555786991
0.12618897015454514 0.09842973924098183 -0.04235184753742771
0.12169156906048594 0.09631342292783243 -0.04340835011479749
0.11611174080302558 0.09242347117704001 -0.03976782461622974
0.11164542949841472 0.09032178460831546 -0.04081702376613228
0.10617287937442753 0.08649967368189508 -0.03721928226929627
0.1007749591093251 0.0827296853660709 -0.033670603628739415
0.09636955545742554 0.08065665976316506 -0.03470549471700246
0.09107458387592858 0.07695177440297307 -0.03119787343375635
0.08585084902789732 0.07329673330102945 -0.02773744248545551
0.19327975465616878 0.14908895171313433 -0.06775190595834413
0.18695911196813855 0.14442922413367282 -0.06372012945749872
0.18230355534970394 0.14205709955501836 -0.06483074883076989
0.17610856307117373 0.13748230376727905 -0.060849480911659204
0.16567693177568216 0.12669420460597716 -0.042272246830777016
0.1611856984382537 0.12440580692093947 -0.04334366560263292
0.15403589826368275 0.11814063319360545 -0.03495632949583927
0.15089611282001275 0.11784272652214867 -0.04071646358175285
0.14900577302136653 0.11953887238238398 -0.051403403072487364
0.14322076508854056 0.11525221618078957 -0.047629340690056754
0.1387295317511119 0.11296381849575185 -0.04870075946191277
0.13305710914334531 0.10875330015526176 -0.044972097162646496
0.12859735822417862 0.10648094356354056 -0.04603600555786991
0.1230349506898419 0.10234486144629117 -0.04235184753742771
0.11860624389357916 0.10008832262524611 -0.04340835011479749
0.11315135528180313 0.09602502368973051 -0.03976782461622974
0.1087532634026769 0.09378408394810073 -0.04081702376613228
0.10340346905730106 0.08979196204921047 -0.03721928226929627
0.09812663053471578 0.08585428122207196 -0.033670603628739415
0.09378851599135868 0.08364390145940973 -0.03470549471700246
0.08861253042016344 0.07977452515982295 -0.03119787343375635
0.08350618078541891 0.07595720612322437 -0.02773744248545551
0.1885013856212478 0.15508644912351222 -0.06775190595834413
0.18233022736920204 0.15023048465363065 -0.06372012945749872
0.177751478220566 0.14771329600794447 -0.06483074883076989
0.1717032406050803 0.14294616819581374 -0.060849480911659204
0.16161561907358662 0.13183572685280193 -0.042272246830777016
0.15719848219705326 0.12940738530555537 -0.04334366560263292
0.15150629906125576 0.1249356591784745 -0.03965255518652944
0.14712012520539333 0.12252433969588787 -0.04071646358175285
0.14394707156745354 0.12212236066381646 -0.04655792191820085
0.1395299346909205 0.11969401911657006 -0.047629340690056754
0.13511279781438695 0.11726567756932348 -0.04870075946191277
0.13069566093785373 0.11483733602207721 -0.04977217823376867
0.12518925592608246 0.11046774228295544 -0.04603600555786991
0.12080308207021995 0.1080564228003687 -0.04709991395309332
0.11540386868345477 0.10376444723203831 -0.04340835011479749
0.11007930303384622 0.09953181109728086 -0.03976782461622974
0.10575377096590123 0.09715382971971889 -0.04081702376613228
0.10053201200026715 0.09299563659069825 -0.03721928226929627
0.09538146282274036 0.08889414926781983 -0.033670603628739415
0.0911149185832331 0.08654859672336455 -0.03470549471700246
0.08606302709519403 0.08251854809163521 -0.03119787343375635
0.08107910202432866 0.0785427183534003 -0.02773744248545551
0.18353698847676672 0.16093089493241908 -0.06775190595834413
0.17752140484884726 0.15588348582278155 -0.06372012945749872
0.17302398184262038 0.15322371727135312 -0.06483074883076989
0.16712846777049312 0.1482689620144392 -0.060849480911659204
0.15739481126755558 0.13684714315394314 -0.042272246830777016
0.15305613003272708 0.13428125422441764 -0.04334366560263292
0.14750721595773542 0.12963293883113436 -0.03965255518652944
0.14319894778922418 0.12708503613889005 -0.04071646358175285
0.14004008632824183 0.1265835874358419 -0.04655792191820085
0.13570140509341366 0.12401769850631654 -0.047629340690056754
0.13136272385858497 0.121451809576791 -0.04870075946191277
0.12596587511518012 0.11689342536991296 -0.044972097162646496
0.12165760694666929 0.1143455226776692 -0.04603600555786991
0.11636588229794842 0.10986833571476534 -0.04235184753742771
0.11208760378781774 0.10733816885704603 -0.04340835011479749
0.10689861580383023 0.10294037262389936 -0.03976782461622974
0.10264991232498973 0.1004276963909277 -0.04081702376613228
0.09756134198476588 0.09610753566637027 -0.03721928226929627
0.09254216512250246 0.09184628952056106 -0.033670603628739415
0.08835140175090331 0.08936787897149215 -0.03470549471700246
0.08342858995299686 0.08518113517906609 -0.03119787343375635
0.07857200797833902 0.08105071840313872 -0.02773744248545551
0.17694904858461682 0.16418237239819525 -0.06260951008422766
0.17253739013432562 0.1613826488114667 -0.06372012945749872
0.16812573168403458 0.15858292522473846 -0.06483074883076989
0.1623887593158809 0.15344543226828514 -0.060849480911659204
0.15301867378530934 0.14172350784654725 -0.042272246830777016
0.1487627299467491 0.1390226037573327 -0.04334366560263292
0.1422342657705607 0.13211237945777518 -0.03495632949583927
0.13913645030020555 0.1315203149943855 -0.04071646358175285
0.13709487847044902 0.13303103660920523 -0.051403403072487364
0.1317389545925088 0.12821898740047546 -0.047629340690056754
0.12748301075394838 0.12551808331126088 -0.04870075946191277
0.12223200733772148 0.12079242927615856 -0.044972097162646496
0.11800589659710063 0.11811045784660236 -0.04603600555786991
0.11285741493609458 0.11346926301714726 -0.04235184753742771
0.10866072195974252 0.11080596066848601 -0.04340835011479749
0.10361243254604213 0.10624734443087988 -0.03976782461622974
0.09944475061368754 0.1036024530505814 -0.04081702376613228
0.0944943907034492 0.09912458820754298 -0.03721928226929627
0.08961153947803965 0.09470778857428243 -0.033670603628739415
0.08550069275183937 0.09209896591258965 -0.03470549471700246
0.0807118188649718 0.08775965877011829 -0.03119787343375635
0.07662881237697129 0.08516850406083525 -0.03222575584076037
0.17306988565392092 0.17213771743173795 -0.06775190595834413
0.16738310184643296 0.16672254660973823 -0.06372012945749872
0.1630615617263422 0.1637856309768756 -0.06483074883076989
0.1574887927612564 0.15847047040617382 -0.060849480911659204
0.14849152534620536 0.14646000854739327 -0.042272246830777016
0.14432251900665574 0.14362675476474163 -0.04334366560263292
0.13907642458454259 0.1386391925624881 -0.03965255518652944
0.13493664193288785 0.13582579917762153 -0.04071646358175285
0.13284862458291105 0.137271648021635 -0.051403403072487364
0.1276464936484579 0.13229373963413607 -0.047629340690056754
0.12347748730890808 0.12946048585148442 -0.04870075946191277
0.1183775113262696 0.12457222563815532 -0.044972097162646496
0.11423772867461518 0.1217588322532893 -0.04603600555786991
0.10923757093113964 0.11695820985624139 -0.04235184753742771
0.105126605117861 0.11416440037451195 -0.04340835011479749
0.10022399632661168 0.10944946293630446 -0.03976782461622974
0.0961414489396399 0.1066749665971499 -0.04081702376613228
0.09133418486695427 0.10204381674761141 -0.03721928226929627
0.08659247806304428 0.09747582247489085 -0.033670603628739415
0.0825656048916531 0.09473916229357435 -0.03470549471700246
0.07791539495618298 0.09025157417331642 -0.03119787343375635
0.07391579332171809 0.08753344770935642 -0.03222575584076037
0.16629078359696253 0.17496911868100878 -0.06260951008422766
0.16206362664542465 0.17189790938316293 -0.06372012945749872
0.15783646969388684 0.16882670008531744 -0.06483074883076989
0.15243340378202894 0.16333911732214335 -0.060849480911659204
0.1438178336991838 0.15105197090213413 -0.042272246830777016
0.1397398791645717 0.148089163505466 -0.04334366560263292
0.1336581939949825 0.14078264929772172 -0.03495632949583927
0.13060366739108056 0.13999723969551672 -0.04071646358175285
0.1284712651419186 0.1413767888904743 -0.051403403072487364
0.12342806102612387 0.13623793391879455 -0.047629340690056754
0.11935010649151158 0.13327512652212642 -0.04870075946191277
0.11440619100302882 0.1282290842532343 -0.044972097162646496
0.11035682190601602 0.12528704539266422 -0.04603600555786991
0.1063074528090028 0.12234500653209343 -0.04709991395309332
0.10148874100881698 0.11741017360060334 -0.04340835011479749
0.09673665112299656 0.11254356803580472 -0.03976782461622974
0.09274326726278663 0.10964220483071181 -0.04081702376613228
0.08808384321690542 0.10486234036044925 -0.03721928226929627
0.08348796032663724 0.10014765950711522 -0.033670603628739415
0.07954903474770504 0.09728586255937295 -0.03470549471700246
0.07504207795941205 0.09265442216901007 -0.03119787343375635
0.07112982830241822 0.08981200641302968 -0.03222575584076037
0.16071281630052064 0.1801061017235559 -0.06260951008422766
0.15658421421109606 0.17690362967351259 -0.06372012945749872
0.15245561212167155 0.17370115762346958 -0.06483074883076989
0.14722758143677647 0.16804656824948652 -0.060849480911659204
0.13900221121363862 0.15549486319832 -0.042272246830777016
0.13501933293275228 0.15240542612083186 -0.04334366560263292
0.13009676210148913 0.14709830073901997 -0.03965255518652944
0.12614180279753012 0.144030519839904 -0.04071646358175285
0.12396712007275487 0.1453424079373053 -0.051403403072487364
0.11908781980920746 0.14004767781088026 -0.047629340690056754
0.11510494152832093 0.13695824073339208 -0.04870075946191277
0.1103219655816949 0.13175939624344027 -0.044972097162646496
0.1063670062777362 0.12869161534432488 -0.04603600555786991
0.10167814877776471 0.12358650337653831 -0.04235184753742771
0.09775071976528146 0.12054007716045298 -0.04340835011479749
0.09315383852388048 0.11552660622120325 -0.03976782461622974
0.08925355917817535 0.11250123944536962 -0.04081702376613228
0.08474657344809275 0.1075773775035351 -0.03721928226929627
0.08030105005301143 0.10272066289037954 -0.033670603628739415
0.07645395931053237 0.09973655342429 -0.03470549471700246
0.07209470349163506 0.09496583143632685 -0.03119787343375635
0.06779409560693336 0.09025929310741938 -0.02773744248545551
0.1549762448574836 0.18506534178817508 -0.06260951008422766
0.1509502720619824 0.18173476743920852 -0.06372012945749872
0.1469242992664813 0.17840419309024225 -0.06483074883076989
0.14187646324364722 0.17258817750247554 -0.060849480911659204
0.13404941032756593 0.15978430083765152 -0.042272246830777016
0.13016553892040986 0.15657128298074655 -0.04334366560263292
0.12455463439032656 0.14889731433836464 -0.03495632949583927
0.12155545147390294 0.14792165925022469 -0.04071646358175285
0.11934063442281113 0.14916459157490372 -0.051403403072487364
0.11463005329178609 0.1437192115531277 -0.047629340690056754
0.11074618188462984 0.1405061936962227 -0.04870075946191277
0.10612886569966415 0.13515967761705866 -0.044972097162646496
0.10227221925610454 0.13196918220876772 -0.04603600555786991
0.09841557281254457 0.12877868680047597 -0.04709991395309332
0.09391623036292503 0.12355102221712513 -0.04340835011479749
0.08947909433274055 0.11839563359395767 -0.03976782461622974
0.085675768606368 0.11524924891913409 -0.04081702376613228
0.08132566904286463 0.11018624876299915 -0.03721928226929627
0.07703489233784655 0.10519229338098696 -0.033670603628739415
0.07328343304591856 0.10208881635231729 -0.03470549471700246
0.06907618025561085 0.09718352089337975 -0.03119787343375635
0.06492553040283221 0.09234421959886811 -0.02773744248545551
0.1501306011679724 0.19247176851635497 -0.06775190595834413
0.14516736021879076 0.18638655493054632 -0.06372012945749872
0.1412479898663006 0.1829311651574341 -0.06483074883076989
0.13638533011024948 0.17695946306109278 -0.060849480911659204
0.12896431885748136 0.1639160506630487 -0.042272246830777016
0.12518328723622893 0.16058262288743932 -0.04334366560263292
0.11981619652902385 0.1527361981149329 -0.03495632949583927
0.11684913959523854 0.15166681784166375 -0.04071646358175285
0.11459637397486148 0.1528395677694771 -0.051403403072487364
0.11005916075121978 0.14724891178500288 -0.047629340690056754
0.10627812912996719 0.14391548400939347 -0.04870075946191277
0.10183102944028107 0.13842657270689465 -0.044972097162646496
0.09807650190154177 0.13511651142320294 -0.04603600555786991
0.0937174494234915 0.12972705742931073 -0.04235184753742771
0.08998905697984429 0.12644003733136466 -0.04340835011479749
0.08571604507843618 0.12114781877043292 -0.03976782461622974
0.08201342639470705 0.11788352129842582 -0.04081702376613228
0.0778245060208582 0.11268637949788114 -0.03721928226929627
0.07369271048447949 0.10756011177804684 -0.033670603628739415
0.07004058488050452 0.10434032994393701 -0.03470549471700246
0.06598948716934266 0.09930530194841956 -0.03119787343375635
0.06236209516735346 0.09610732571767634 -0.03222575584076037
0.14401083642883108 0.197092511460833 -0.06775190595834413
0.13924118571733096 0.19085440139488916 -0.06372012945749872
0.13543228575319835 0.18727760625016282 -0.06483074883076989
0.1307596011220334 0.18115611099424364 -0.060849480911659204
0.12375195517473536 0.1678860351362661 -0.042272246830777016
0.12007749476110728 0.16443548713271722 -0.04334366560263292
0.1149595145473317 0.15642434970402636 -0.03495632949583927
0.11202751172316122 0.1552622995948499 -0.04071646358175285
0.10973902074118654 0.15636370976320665 -0.051403403072487364
0.10537965310659553 0.15063329511852283 -0.047629340690056754
0.10170519269296728 0.14718274711497392 -0.04870075946191277
0.0974326982490496 0.1415568574819116 -0.044972097162646496
0.09378399488052175 0.13813049695367757 -0.04603600555786991
0.0895963801726968 0.13260678118279606 -0.04235184753742771
0.08597307526203496 0.12920427139404883 -0.04340835011479749
0.08186840443626292 0.12378044567613515 -0.03976782461622974
0.07827014683279548 0.120401456874446 -0.04081702376613228
0.07424653960727567 0.1150753023809902 -0.03721928226929627
0.07027780282289302 0.10982178133067146 -0.033670603628739415
0.06672861511391572 0.10648887222706276 -0.03470549471700246
0.06283767042624568 0.10132908065971068 -0.03119787343375635
0.05931251918416073 0.09801874330093276 -0.03222575584076037
0.13774895038077348 0.2015187478917665 -0.06775190595834413
0.13317759697636025 0.19513389760718636 -0.06372012945749872
0.12948292632499572 0.19143922695582202 -0.06483074883076989
0.1250048281943078 0.18517397971708552 -0.060849480911659204
0.11841746325298651 0.17169033636193062 -0.042272246830777016
0.11485320029578805 0.16812607340473207 -0.04334366560263292
0.11063460459086372 0.16224383457198568 -0.03965255518652944
0.10709532622225854 0.1587045562033806 -0.04071646358175285
0.10477336834299257 0.15973353965341938 -0.051403403072487364
0.10059614846699477 0.1538690215759389 -0.047629340690056754
0.09703188550979613 0.1503047586187403 -0.04870075946191277
0.09293821274783853 0.14454744272896042 -0.044972097162646496
0.08939893437923357 0.14100816436035593 -0.04603600555786991
0.08538689011177372 0.1353556380530647 -0.04235184753742771
0.08187224849859717 0.1318409964398878 -0.04340835011479749
0.07793996956300332 0.12629091622614935 -0.03976782461622974
0.0740616837687472 0.12081704277961192 -0.03617728626531991
0.07059530082299412 0.11735065983385884 -0.03721928226929627
0.06679353945466229 0.11197507004406705 -0.033670603628739415
0.06335079226045282 0.10853232284985773 -0.03470549471700246
0.05962384048892187 0.10325285980199882 -0.03119787343375635
0.05620440890542046 0.09983342821849743 -0.03222575584076037
0.13055937317062663 0.20302972018547885 -0.06260951008422766
0.12698257802590002 0.19922082022134624 -0.06372012945749872
0.12340578288117346 0.1954119202572138 -0.06483074883076989
0.11912669059317023 0.18900910407827212 -0.060849480911659204
0.11296610759172056 0.17532519995403145 -0.042272246830777016
0.10951555958817179 0.17165073954040325 -0.04334366560263292
0.10491070202042496 0.1633340496248939 -0.03495632949583927
0.10205745056414992 0.1619901905755718 -0.04071646358175285
0.09970431727968612 0.16294573182485814 -0.051403403072487364
0.09622923788300823 0.15924514813085494 -0.05248243900981142
0.09226281957042833 0.15327843747226338 -0.04870075946191277
0.08881227156687961 0.14960397705863554 -0.04977217823376867
0.08492564792297724 0.14374667373293262 -0.04603600555786991
0.0810931334991945 0.13797091525025915 -0.04235184753742771
0.0776906237104476 0.13434761033959702 -0.04340835011479749
0.07393461734959161 0.12867675288913544 -0.03976782461622974
0.07055562854790265 0.12507849528566783 -0.04081702376613228
0.06687439299987422 0.11951020635338833 -0.03721928226929627
0.06324335892707156 0.11401785288224318 -0.033670603628739415
0.05991044982346269 0.11046866517326602 -0.03470549471700246
0.056351169019509 0.10507474083753122 -0.03119787343375635
0.05304083166073106 0.1015495895954463 -0.03222575584076037
0.12482366741793094 0.20977042483440775 -0.06775190595834413
0.12066224260172065 0.20311113593816874 -0.06372012945749872
0.11720685282860821 0.19919176558567875 -0.06483074883076989
0.11313098933075685 0.19265769927307913 -0.060849480911659204
0.10740326802082503 0.17878703874104557 -0.042272246830777016
0.10406984024521575 0.175006007119793 -0.04334366560263292
0.09972848843996657 0.1665487789170643 -0.03495632949583927
0.09691885652387981 0.16511596018697763 -0.04071646358175285
0.09453687009267274 0.16599711623166236 -0.051403403072487364
0.09073612914277916 0.159881880634784 -0.047629340690056754
0.08740270136716971 0.15610084901353138 -0.04870075946191277
0.08367861138911088 0.15009785003201997 -0.044972097162646496
0.08036855010541866 0.14634332249328114 -0.04603600555786991
0.07671934775434423 0.14045003181153207 -0.04235184753742771
0.0734323276563985 0.13672163936788462 -0.04340835011479749
0.06985630059509038 0.13093560113235259 -0.03976782461622974
0.06659200312308348 0.1272329824486233 -0.04081702376613228
0.06308748822470675 0.12155181072788908 -0.03721928226929627
0.05963076483968307 0.11594811386516674 -0.033670603628739415
0.05641098300557307 0.11229598826119189 -0.03470549471700246
0.05302288574963295 0.10679292578968419 -0.03119787343375635
0.04982490951888972 0.103165533787695 -0.03222575584076037
0.118173026196942 0.21358772193721018 -0.06775190595834413
0.11422282811182247 0.2068010054857249 -0.06372012945749872
0.11089225376285596 0.2027750326902239 -0.06483074883076989
0.10702364144034388 0.19611616457854955 -0.060849480911659204
0.10173443439134663 0.18207243630604306 -0.042272246830777016
0.09852141653444176 0.1781885648988868 -0.04334366560263292
0.09444785488178425 0.1695991446721213 -0.03495632949583927
0.09168461527337599 0.16807878028037035 -0.04071646358175285
0.08927612642845252 0.16888468152582067 -0.051403403072487364
0.08566934510682275 0.1626530792702632 -0.047629340690056754
0.08245632724991772 0.15876920786310691 -0.04870075946191277
0.07892263364021014 0.15265219450613138 -0.044972097162646496
0.07573213823191868 0.14879554806257222 -0.04603600555786991
0.07254164282362702 0.14493890161901218 -0.04709991395309332
0.06910156276054488 0.13896074064471967 -0.04340835011479749
0.06570904410575516 0.13306523174529883 -0.03976782461622974
0.0625626594309318 0.12926190601892612 -0.04081702376613228
0.05923832371530627 0.12347345814032937 -0.03721928226929627
0.05595932238670729 0.11776394805829081 -0.033670603628739415
0.05285584535803745 0.11401248876636291 -0.03470549471700246
0.049642275293052596 0.10840571901734891 -0.03119787343375635
0.04655981620678747 0.10467966605342108 -0.03222575584076037
0.11140576246629903 0.21719423374521873 -0.06775190595834413
0.10767068948086707 0.21028678740825457 -0.06372012945749872
0.10446821743082381 0.2061581853188302 -0.06483074883076989
0.1008106741369501 0.1993810869069724 -0.060849480911659204
0.09596520115767108 0.1851781503582781 -0.042272246830777016
0.09287576408018303 0.18119527207739153 -0.04334366560263292
0.08907401269366132 0.1724821365473398 -0.03495632949583927
0.08635989237681507 0.17087572691002342 -0.04071646358175285
0.08392727800588479 0.1716055780290077 -0.051403403072487364
0.0805180157702313 0.1652637589538469 -0.047629340690056754
0.07742857869274308 0.16128088067296031 -0.04870075946191277
0.07408876878035155 0.15505588969418804 -0.044972097162646496
0.07102098788123565 0.1511009303902298 -0.04603600555786991
0.06774902918106436 0.14499013345995537 -0.04235184753742771
0.06470260296497939 0.1410627044474719 -0.04340835011479749
0.0614969407230366 0.13506354303967258 -0.03976782461622974
0.05847157394720319 0.1311632636939673 -0.04081702376613228
0.05533069813232827 0.1252732521567164 -0.03721928226929627
0.052232654838586696 0.1194635634524951 -0.033670603628739415
0.049248545372496996 0.11561647271001613 -0.03470549471700246
0.04621267390414252 0.10991152888832459 -0.03119787343375635
0.04324877397732386 0.10609049212688167 -0.03222575584076037
0.10452855469828252 0.22058640106669838 -0.06775190595834413
0.10101229287863395 0.21356504165984386 -0.06372012945749872
0.09794108358078818 0.20933788470830617 -0.06483074883076989
0.09449821886920336 0.20244924417418844 -0.060849480911659204
0.09010126185647206 0.18810111593293852 -0.042272246830777016
0.08713845445980405 0.1840231613983262 -0.04334366560263292
0.08361226520904563 0.17519490937780677 -0.03495632949583927
0.08094994269283441 0.17350403982729282 -0.04071646358175285
0.07849560349258831 0.1741571205448726 -0.051403403072487364
0.07528722487313246 0.16771134325987858 -0.047629340690056754
0.0723244174764643 0.1636333887252662 -0.04870075946191277
0.0691817872505522 0.15730656343924096 -0.044972097162646496
0.0662397483899816 0.1532571943422286 -0.04603600555786991
0.06329770952941087 0.14920782524521528 -0.04709991395309332
0.06023978951192738 0.1430254563916412 -0.04340835011479749
0.05722414728444004 0.13692856292348535 -0.03976782461622974
0.05432278407934737 0.13293517906327526 -0.04081702376613228
0.05136846783044981 0.12694941659764777 -0.03721928226929627
0.04845443996626526 0.12104528273258258 -0.033670603628739415
0.04559264301852283 0.11710635715365046 -0.03470549471700246
0.0427374661854128 0.11130886935006719 -0.03119787343375635
0.0399207019231592 0.10558937896102687 -0.02773744248545551
0.03709740661102769 0.10170344633725789 -0.028758410503596843
0.09754818986666416 0.22376087624204416 -0.06775190595834413
0.09425420933869151 0.2166325329993348 -0.06372012945749872
0.09131729370582863 0.21231099287924413 -0.06483074883076989
0.08809250526834092 0.205317608479398 -0.060849480911659204
0.08414840348787787 0.1908384484158961 -0.042272246830777016
0.08131514970522635 0.18666944207634625 -0.04334366560263292
0.07806800251329972 0.1777347859842556 -0.03495632949583927
0.07546010518862094 0.17596112520464927 -0.04071646358175285
0.07298646329553371 0.17653679100900366 -0.051403403072487364
0.06998213457462066 0.1699934167181486 -0.047629340690056754
0.06714888079196898 0.16582441037859869 -0.04870075946191277
0.06420653164915495 0.1594019945980309 -0.044972097162646496
0.06139313826428838 0.1552622119463769 -0.04603600555786991
0.05851133614119409 0.14895802529130336 -0.04235184753742771
0.05571752665946502 0.14484705947802454 -0.04340835011479749
0.05289488052122875 0.13865845084727835 -0.03976782461622974
0.050120384182074436 0.13457590346030646 -0.04081702376613228
0.04735554305261296 0.1285002972911861 -0.03721928226929627
0.044628406411672546 0.12250754493258709 -0.033670603628739415
0.04189174623035588 0.11848067176119599 -0.03470549471700246
0.03922008174731489 0.11259636139624392 -0.03119787343375635
0.036584360922848495 0.10679121652682784 -0.02773744248545551
0.03388451882996228 0.10281851952737577 -0.028758410503596843
0.09047155674878309 0.226714526447517 -0.06775190595834413
0.08740310827358039 0.21948623418311808 -0.06372012945749872
0.0846033846868519 0.2150745757328271 -0.06483074883076989
0.08159985500031568 0.20798334909333366 -0.060849480911659204
0.07811250080440102 0.19338744639047226 -0.042272246830777016
0.0754115967151866 0.18913150255191183 -0.04334366560263292
0.07244669612433735 0.18009925981511873 -0.03495632949583927
